VERSION 0.7
FIELDS x y z rgb
SIZE 4 4 4 4
TYPE F F F F
COUNT 1 1 1 1
WIDTH 890
HEIGHT 1
VIEWPOINT 0.0 0.0 0.0 1.0 0.0 0.0 0.0
POINTS 890
DATA ascii
11.3764219284 7.6590576172 -1.1195751429 0.0000000000
18.0261344910 14.8860378265 0.6803694367 0.0000000000
13.0049743652 8.7554636002 0.2736537457 0.0000000000
11.1052875519 9.1707811356 -0.9230352044 0.0000000000
13.5858898163 8.2084741592 -0.9244104624 0.0000000000
15.9648542404 11.9171829224 1.1602222919 0.0000000000
13.2147760391 8.8900079727 0.6488740444 0.0000000000
12.6141672134 9.4125890732 -0.7331444025 0.0000000000
12.8909511566 8.6688928604 -0.8141381145 0.0000000000
16.9238376617 12.6238317490 2.5924046040 0.0000000000
19.8651523590 13.3538618088 1.9540492296 0.0000000000
12.2229795456 10.0794296265 -0.6454546452 0.0000000000
13.5002403259 8.1438655853 -0.5505744815 0.0000000000
16.1892242432 12.0670757294 5.4103531837 0.0000000000
18.5182838440 12.4390792847 4.0673685074 0.0000000000
14.1830205917 10.5678472519 -0.4115714729 0.0000000000
3.9811427593 2.6681625843 -2.2348053455 0.0000000000
13.7250223160 11.2859001160 -0.3101641536 0.0000000000
12.8086853027 8.5811433792 -0.4486924112 0.0000000000
5.9389338493 4.4138588905 -2.0714170933 0.0000000000
7.7499198914 5.1900782585 -1.8654676676 0.0000000000
16.1216964722 11.9773941040 0.0000000000 0.0000000000
13.4517755508 8.0858373642 -0.1827184409 0.0000000000
8.4266567230 6.2604699135 -1.6332004070 0.0000000000
9.6051330566 6.4300756454 -1.4712773561 0.0000000000
16.6413097382 13.6693258286 0.1251653731 0.0000000000
12.8416547775 8.5934934616 -0.0898056924 0.0000000000
9.6850185394 7.1901073456 -1.2993013859 0.0000000000
11.5787172318 6.9516949654 -1.2606933117 0.0000000000
20.1151638031 14.9279470444 0.5828812122 0.0000000000
13.5294370651 8.1196670532 0.1836962998 0.0000000000
11.4022960663 8.4588327408 -0.9927741289 0.0000000000
11.4713621140 7.6678152084 -1.1264097691 0.0000000000
18.7864208221 15.4093875885 0.7071326971 0.0000000000
13.0272874832 8.7078447342 0.2735141218 0.0000000000
11.1479835510 9.1440305710 -0.9240585566 0.0000000000
13.6267347336 8.1715917587 -0.9253406525 0.0000000000
24.5212993622 18.1779441833 1.7776587009 0.0000000000
13.2342138290 8.8394784927 0.6483855844 0.0000000000
12.6709928513 9.3897380829 -0.7346333861 0.0000000000
12.8830842972 8.6016979218 -0.8118353486 0.0000000000
16.9081821442 12.5251026154 2.5836300850 0.0000000000
19.7932662964 13.2104520798 1.9426581860 0.0000000000
12.2810716629 10.0591020584 -0.6467572451 0.0000000000
13.5443210602 8.1093196869 -0.5512724519 0.0000000000
15.7136440277 11.6317300797 5.2384972572 0.0000000000
18.6314544678 12.4256362915 4.0831527710 0.0000000000
14.2308454514 10.5302715302 -0.4119436741 0.0000000000
3.9727823734 2.6415095329 -2.2246625423 0.0000000000
13.7848854065 11.2506933212 -0.3105830252 0.0000000000
12.8433809280 8.5363531113 -0.4488087595 0.0000000000
5.9798717499 4.4103527069 -2.0800435543 0.0000000000
7.7688908577 5.1616387367 -1.8654676676 0.0000000000
13.5019350052 8.0487680435 -0.1829978228 0.0000000000
8.4749965668 6.2483062744 -1.6381196976 0.0000000000
9.6550788879 6.4123902321 -1.4753179550 0.0000000000
16.6943988800 13.6107673645 0.1251886189 0.0000000000
12.8564033508 8.5353069305 -0.0896894485 0.0000000000
9.7209129333 7.1616387367 -1.3005865812 0.0000000000
11.6246500015 6.9214353561 -1.2629239559 0.0000000000
19.4420337677 14.3181962967 0.5618513823 0.0000000000
13.4800539017 8.0229749680 0.1826253086 0.0000000000
11.3914489746 8.3862314224 -0.9891467690 0.0000000000
11.5459051132 7.6565656662 -1.1309661865 0.0000000000
18.1234169006 14.7547807693 0.6801366806 0.0000000000
11.2123794556 9.1283121109 -0.9266168475 0.0000000000
13.6771860123 8.1338386536 -0.9267359972 0.0000000000
16.0669612885 11.8196353912 1.1616176367 0.0000000000
13.2531967163 8.7820825577 0.6477342248 0.0000000000
12.7246370316 9.3574371338 -0.7357501388 0.0000000000
12.9478263855 8.5764808655 -0.8139287829 0.0000000000
19.9545726776 13.2126522064 1.9537237883 0.0000000000
12.3364648819 10.0291490555 -0.6477342248 0.0000000000
13.5980138779 8.0739097595 -0.5522496104 0.0000000000
15.7935371399 11.6015062332 5.2509207726 0.0000000000
21.1259555817 13.9829654694 4.6191067696 0.0000000000
14.3029670715 10.5065736771 -0.4129672647 0.0000000000
4.0273661613 2.6575760841 -2.2500195503 0.0000000000
13.8427171707 11.2176141739 -0.3110018969 0.0000000000
5.9890141487 4.3849010468 -2.0778868198 0.0000000000
7.8294296265 5.1625576019 -1.8756657839 0.0000000000
13.1502256393 9.6245098114 0.0000000000 0.0000000000
13.5520029068 8.0114402771 -0.1832772195 0.0000000000
8.5106000900 6.2265372276 -1.6405793428 0.0000000000
9.6807165146 6.3808321953 -1.4758230448 0.0000000000
16.7666778564 13.5725440979 0.1253746003 0.0000000000
12.8994798660 8.4991807938 -0.0897824392 0.0000000000
9.7651128769 7.1417489052 -1.3031568527 0.0000000000
11.6693143845 6.8929691315 -1.2651546001 0.0000000000
19.2304115295 14.0590763092 0.5543140769 0.0000000000
13.9040555954 8.2097387314 0.1879802048 0.0000000000
11.4818639755 8.3911504745 -0.9944483042 0.0000000000
11.5359277725 7.5921072960 -1.1273860931 0.0000000000
12.9838504791 8.5417776108 0.2712801993 0.0000000000
11.2643899918 9.1022081375 -0.9281517863 0.0000000000
13.7467660904 8.1103963852 -0.9295266867 0.0000000000
25.8052444458 18.8451175690 1.8609137535 0.0000000000
13.2804317474 8.7335700989 0.6475714445 0.0000000000
12.7701320648 9.3223867416 -0.7364946008 0.0000000000
18.0396690369 13.1644010544 2.7420601845 0.0000000000
16.8353958130 11.0629949570 1.6445387602 0.0000000000
12.3900575638 10.0010871887 -0.6487112045 0.0000000000
13.6536693573 8.0426263809 -0.5533664227 0.0000000000
15.8245725632 11.5394763947 5.2478151321 0.0000000000
21.3226432800 14.0063581467 4.6513934135 0.0000000000
4.0877079964 2.6779789925 -2.2787575722 0.0000000000
13.9078798294 11.1942176819 -0.3116301596 0.0000000000
12.9446716309 8.4772100449 -0.4503214657 0.0000000000
6.0035223961 4.3650169373 -2.0778868198 0.0000000000
7.8432245255 5.1344175339 -1.8748812675 0.0000000000
13.5991935730 7.9785995483 -0.1835566014 0.0000000000
8.5120162964 6.1843414307 -1.6368899345 0.0000000000
9.6752605438 6.3313131332 -1.4717824459 0.0000000000
16.8988780975 13.5870475769 0.1260255426 0.0000000000
12.9610671997 8.4782543182 -0.0900149196 0.0000000000
9.8048315048 7.1210126877 -1.3052988052 0.0000000000
11.7367744446 6.8804183006 -1.2699877024 0.0000000000
20.2995071411 14.7376308441 0.5837187171 0.0000000000
13.9657125473 8.1838083267 0.1884458512 0.0000000000
11.5031681061 8.3483419418 -0.9938902259 0.0000000000
11.6177787781 7.5908823013 -1.1329189539 0.0000000000
18.9529895782 15.2168216705 0.7073654532 0.0000000000
13.0173177719 8.5053205490 0.2714198232 0.0000000000
11.2742538452 9.0517807007 -0.9266168475 0.0000000000
13.8045997620 8.0829257965 -0.9316196442 0.0000000000
16.1793689728 11.7334413528 1.1639431715 0.0000000000
12.8236207962 9.2964038849 -0.7377974987 0.0000000000
18.0414314270 13.0742206573 2.7357230186 0.0000000000
12.4387454987 9.9724454880 -0.6495253444 0.0000000000
13.7078733444 8.0134439468 -0.5544831753 0.0000000000
16.1913356781 11.7248792648 5.3565187454 0.0000000000
21.3623790741 13.9312734604 4.6499586105 0.0000000000
12.9134159088 9.3511896133 -0.3710005581 0.0000000000
4.1821322441 2.7190227509 -2.3260908127 0.0000000000
13.9687404633 11.1630792618 -0.3121188283 0.0000000000
12.9942979813 8.4450464249 -0.4510196447 0.0000000000
6.0187225342 4.3440341949 -2.0778868198 0.0000000000
7.8578100204 5.1048717499 -1.8740968704 0.0000000000
12.9721431732 9.3592472076 0.0000000000 0.0000000000
13.6428594589 7.9435219765 -0.1837894171 0.0000000000
8.5581197739 6.1745815277 -1.6418092251 0.0000000000
9.6973018646 6.2975015640 -1.4717824459 0.0000000000
16.9712123871 13.5479402542 0.1262115240 0.0000000000
12.9805173874 8.4264259338 -0.0899451748 0.0000000000
9.8328542709 7.0890698433 -1.3057272434 0.0000000000
11.8054761887 6.8654356003 -1.2748208046 0.0000000000
13.3433685303 9.6164617538 0.3827251792 0.0000000000
13.8212976456 8.0345020294 0.1861176342 0.0000000000
11.7362060547 8.4550809860 -1.0114688873 0.0000000000
11.6709651947 7.5676345825 -1.1355226040 0.0000000000
19.0028648376 15.1480789185 0.7072490454 0.0000000000
13.0569944382 8.4663572311 0.2716292441 0.0000000000
11.2652025223 8.9800243378 -0.9232910275 0.0000000000
13.8569011688 8.0487289429 -0.9332475662 0.0000000000
25.9426422119 18.6760311127 1.8616114855 0.0000000000
12.8851823807 9.2725896835 -0.7394726276 0.0000000000
13.0890979767 8.4774417877 -0.8172782660 0.0000000000
17.9806041718 12.9346561432 2.7196362019 0.0000000000
19.8854255676 12.8743076324 1.9338707924 0.0000000000
12.4953689575 9.9463882446 -0.6506651640 0.0000000000
13.7461366653 7.9715623856 -0.5549020171 0.0000000000
21.5430240631 13.9421415329 4.6786575317 0.0000000000
12.8388261795 9.2290306091 -0.3679298162 0.0000000000
4.1519970894 2.6788575649 -2.3041148186 0.0000000000
14.0232868195 11.1266803741 -0.3124678731 0.0000000000
6.0338492393 4.3229985237 -2.0778868198 0.0000000000
7.9118442535 5.1007905006 -1.8827259541 0.0000000000
12.9201822281 9.2533531189 0.0000000000 0.0000000000
13.6982126236 7.9118547440 -0.1841619313 0.0000000000
8.5603408813 6.1308622360 -1.6381196976 0.0000000000
9.7692556381 6.2958555222 -1.4793585539 0.0000000000
17.0278034210 13.4960708618 0.1262812614 0.0000000000
13.0233020782 8.3897285461 -0.0900381655 0.0000000000
9.8737106323 7.0662760735 -1.3078691959 0.0000000000
11.8535184860 6.8381161690 -1.2774232626 0.0000000000
13.2402572632 9.4721040726 0.3788169622 0.0000000000
13.9012327194 8.0161790848 0.1868160963 0.0000000000
11.7753858566 8.4210262299 -1.0123059750 0.0000000000
11.7308368683 7.5484223366 -1.1387771368 0.0000000000
18.7577838898 14.8459253311 0.6961946487 0.0000000000
13.0965576172 8.4272212982 0.2718386948 0.0000000000
11.4029035568 9.0248756409 -0.9319892526 0.0000000000
13.9091320038 8.0142650604 -0.9348754287 0.0000000000
16.2901287079 11.6410989761 1.1660362482 0.0000000000
13.3931913376 8.6114864349 0.6487112045 0.0000000000
12.9369792938 9.2414913177 -0.7405893803 0.0000000000
13.1387720108 8.4446592331 -0.8185343742 0.0000000000
17.2502098083 12.3180875778 2.6026415825 0.0000000000
19.8564529419 12.7574071884 1.9267107248 0.0000000000
12.5519618988 9.9200582504 -0.6518049836 0.0000000000
13.8050651550 7.9414710999 -0.5561583638 0.0000000000
16.3860187531 11.6923494339 5.3937888145 0.0000000000
24.1212272644 15.4914979935 5.2268085480 0.0000000000
12.7570323944 9.1028623581 -0.3646729887 0.0000000000
4.1495742798 2.6558048725 -2.2973527908 0.0000000000
14.0891103745 11.0950021744 -0.3130263686 0.0000000000
13.0981807709 8.3798570633 -0.4525323510 0.0000000000
6.0496530533 4.3008542061 -2.0778868198 0.0000000000
7.9271821976 5.0696444511 -1.8819415569 0.0000000000
12.9116239548 9.1758136749 0.0000000000 0.0000000000
13.7548856735 7.8774971962 -0.1845344454 0.0000000000
8.6149711609 6.1223416328 -1.6442687511 0.0000000000
9.7822360992 6.2535953522 -1.4778432846 0.0000000000
17.1620368958 13.5003423691 0.1269089431 0.0000000000
13.0674467087 8.3505554199 -0.0901311561 0.0000000000
9.9125137329 7.0392503738 -1.3095827103 0.0000000000
11.8888731003 6.8005571365 -1.2785385847 0.0000000000
13.1901025772 9.3633279800 0.3763976097 0.0000000000
13.9374647141 7.9691448212 0.1869092286 0.0000000000
11.8224420547 8.3893566132 -1.0137010813 0.0000000000
11.7584238052 7.5053758621 -1.1387771368 0.0000000000
19.9094142914 15.6390504837 0.7368050218 0.0000000000
13.1524200439 8.3919305801 0.2723273635 0.0000000000
11.4563093185 8.9958162308 -0.9335242510 0.0000000000
13.9626836777 7.9770984650 -0.9365033507 0.0000000000
25.2482357025 17.9032230377 1.8025422096 0.0000000000
13.4280338287 8.5644884109 0.6488740444 0.0000000000
13.0001020432 9.2148084641 -0.7422645092 0.0000000000
17.3762264252 12.3121623993 2.6148285866 0.0000000000
19.9131641388 12.6909713745 1.9276870489 0.0000000000
12.6039600372 9.8863191605 -0.6526191235 0.0000000000
13.8549137115 7.9027032852 -0.5569959879 0.0000000000
16.6558017731 11.7929649353 5.4683289528 0.0000000000
40.9413681030 26.0825290680 8.8507776260 0.0000000000
12.7119827271 9.0005855560 -0.3624397218 0.0000000000
4.1395401955 2.6310875416 -2.2872099876 0.0000000000
14.1585454941 11.0777950287 -0.3137942553 0.0000000000
13.1413164139 8.3493881226 -0.4531141520 0.0000000000
6.0599884987 4.2796053886 -2.0768086910 0.0000000000
7.9695577621 5.0615382195 -1.8882173300 0.0000000000
12.8488893509 9.0706129074 0.0000000000 0.0000000000
13.8087520599 7.8476510048 -0.1849069595 0.0000000000
8.6416854858 6.0982971191 -1.6454986334 0.0000000000
9.8252830505 6.2377200127 -1.4813787937 0.0000000000
17.2264270782 13.4636020660 0.1270716786 0.0000000000
13.1105022430 8.3201780319 -0.0902473927 0.0000000000
9.9345788956 7.0080747604 -1.3095827103 0.0000000000
11.9240312576 6.7710404396 -1.2800257206 0.0000000000
13.1083383560 9.2434892654 0.3732338250 0.0000000000
13.8546009064 7.8641128540 0.1854657382 0.0000000000
11.8617849350 8.3613691330 -1.0148172379 0.0000000000
11.8459224701 7.5089530945 -1.1449608803 0.0000000000
13.1873950958 8.3592929840 0.2725367844 0.0000000000
11.4955377579 8.9716091156 -0.9345475435 0.0000000000
14.0258836746 7.9548640251 -0.9390614629 0.0000000000
13.4481210709 8.5179843903 0.6485483646 0.0000000000
13.0518560410 9.1900243759 -0.7435673475 0.0000000000
13.4794416428 8.5345258713 -0.8361192346 0.0000000000
17.3369026184 12.2026691437 2.6031291485 0.0000000000
12.6633281708 9.8687849045 -0.6540845633 0.0000000000
13.9075012207 7.8748955727 -0.5581127405 0.0000000000
16.8349819183 11.8406047821 5.5149164200 0.0000000000
41.2205352783 26.0686111450 8.8923912048 0.0000000000
12.7025041580 8.9307813644 -0.3613230884 0.0000000000
4.1982216835 2.6468322277 -2.3142576218 0.0000000000
14.2148466110 11.0380907059 -0.3141433299 0.0000000000
13.2360992432 8.3416700363 -0.4553250372 0.0000000000
6.1071786880 4.2794704437 -2.0875916481 0.0000000000
8.0046491623 5.0427479744 -1.8921396732 0.0000000000
12.7772102356 8.9500226974 0.0000000000 0.0000000000
13.8478765488 7.8028774261 -0.1850466579 0.0000000000
8.6834039688 6.0801849365 -1.6491880417 0.0000000000
9.8346490860 6.1932086945 -1.4793585539 0.0000000000
17.2977809906 13.4175348282 0.1272344142 0.0000000000
13.1544494629 8.2805929184 -0.0903403834 0.0000000000
9.9732313156 6.9807376862 -1.3112962246 0.0000000000
12.0077667236 6.7605075836 -1.2863459587 0.0000000000
13.0569400787 9.1357765198 0.3708144426 0.0000000000
13.9147014618 7.8309354782 0.1858848184 0.0000000000
11.9348592758 8.3475685120 -1.0184445381 0.0000000000
11.8969898224 7.4803400040 -1.1472390890 0.0000000000
20.1260395050 15.5888633728 0.7408777475 0.0000000000
13.2416458130 8.3258047104 0.2730254531 0.0000000000
11.5472784042 8.9440822601 -0.9360825419 0.0000000000
14.0897521973 7.9229755402 -0.9413870573 0.0000000000
19.5270957947 13.6476392746 1.3874295950 0.0000000000
13.5198612213 8.4941511154 0.6505023241 0.0000000000
13.1116552353 9.1604328156 -0.7450563312 0.0000000000
17.9478740692 12.5345869064 2.6879501343 0.0000000000
20.0396060944 12.5805711746 1.9315925837 0.0000000000
12.7215442657 9.8394212723 -0.6552243829 0.0000000000
13.9537000656 7.8336539268 -0.5588107705 0.0000000000
17.0525321960 11.9004354477 5.5718564987 0.0000000000
41.6545982361 26.1400127411 8.9662904739 0.0000000000
12.6844110489 8.8520593643 -0.3599272966 0.0000000000
4.2161951065 2.6386656761 -2.3193290234 0.0000000000
14.2862081528 11.0177593231 -0.3149112165 0.0000000000
13.2501296997 8.2892494202 -0.4548595846 0.0000000000
6.1181745529 4.2569947243 -2.0865132809 0.0000000000
8.0279788971 5.0203351974 -1.8937085867 0.0000000000
12.7674131393 8.8801946640 0.0000000000 0.0000000000
13.9002475739 7.7749547958 -0.1854191720 0.0000000000
8.6927289963 6.0461049080 -1.6473433971 0.0000000000
9.8685913086 6.1689753532 -1.4813787937 0.0000000000
17.3738670349 13.3845100403 0.1274668872 0.0000000000
13.2021894455 8.2496433258 -0.0904798731 0.0000000000
10.0159196854 6.9612455368 -1.3138666153 0.0000000000
12.0370731354 6.7245359421 -1.2870894670 0.0000000000
13.0050601959 9.0353870392 0.3684881330 0.0000000000
13.9615459442 7.7964501381 0.1861642003 0.0000000000
11.9854164124 8.3238782883 -1.0203976631 0.0000000000
11.9589319229 7.4640665054 -1.1508190632 0.0000000000
20.1902999878 15.5317888260 0.7413431406 0.0000000000
11.5863666534 8.9130430222 -0.9368500113 0.0000000000
14.1403579712 7.8898286819 -0.9430149198 0.0000000000
19.4508628845 13.4985723495 1.3788250685 0.0000000000
13.1583757401 9.1282901764 -0.7459869981 0.0000000000
13.7793674469 8.5902538300 -0.8509826660 0.0000000000
17.3662071228 12.0428771973 2.5948419571 0.0000000000
20.1116657257 12.5330247879 1.9345216751 0.0000000000
12.7794589996 9.8166589737 -0.6565270424 0.0000000000
14.0005540848 7.7990107536 -0.5596483350 0.0000000000
28.9115848541 18.0028781891 6.2097501755 0.0000000000
12.6856479645 8.7872352600 -0.3590898216 0.0000000000
4.3177719116 2.6813068390 -2.3700432777 0.0000000000
14.3499841690 10.9872741699 -0.3154697120 0.0000000000
6.1456747055 4.2443680763 -2.0908265114 0.0000000000
8.0387878418 4.9881453514 -1.8921396732 0.0000000000
12.7522487640 8.8037586212 0.0000000000 0.0000000000
13.9447908401 7.7360882759 -0.1856519878 0.0000000000
8.7202854156 6.0202159882 -1.6485731602 0.0000000000
9.9339008331 6.1616797447 -1.4879447222 0.0000000000
17.3823566437 13.2946224213 0.1271879226 0.0000000000
13.2479038239 8.2140483856 -0.0905961096 0.0000000000
10.0565261841 6.9375324249 -1.3160085678 0.0000000000
12.1336297989 6.7230124474 -1.2948967218 0.0000000000
13.1089458466 9.0398797989 0.3705352843 0.0000000000
14.0446586609 7.7786736488 0.1869092286 0.0000000000
12.0341119766 8.2955789566 -1.0220718384 0.0000000000
11.9883031845 7.4243755341 -1.1511446238 0.0000000000
20.3111209869 15.5121803284 0.7437867522 0.0000000000
11.6300973892 8.8822355270 -0.9378733635 0.0000000000
14.1887760162 7.8520226479 -0.9444102645 0.0000000000
19.5471916199 13.4645729065 1.3823133707 0.0000000000
13.2131958008 9.0981655121 -0.7472898364 0.0000000000
13.8330488205 8.5568122864 -0.8524480462 0.0000000000
17.3917865753 11.9709300995 2.5924046040 0.0000000000
20.1722450256 12.4732284546 1.9361490011 0.0000000000
12.8327150345 9.7865324020 -0.6575040221 0.0000000000
14.0416889191 7.7578248978 -0.5602067113 0.0000000000
16.8975658417 11.6220626831 5.4952459335 0.0000000000
41.8862876892 25.8795986176 8.9770526886 0.0000000000
4.1573538780 2.5616238117 -2.2770671844 0.0000000000
14.4200897217 10.9613189697 -0.3161678016 0.0000000000
13.3281021118 8.2091264725 -0.4555577636 0.0000000000
6.1540989876 4.2185339928 -2.0886700153 0.0000000000
8.0761909485 4.9723930359 -1.8968464136 0.0000000000
12.7499055862 8.7365808487 0.0000000000 0.0000000000
13.9997444153 7.7027893066 -0.1860245019 0.0000000000
8.7836332321 6.0187835693 -1.6565669775 0.0000000000
9.9722442627 6.1373653412 -1.4904701710 0.0000000000
13.3139705658 8.1908092499 -0.0908518359 0.0000000000
10.1003694534 6.9158673286 -1.3185788393 0.0000000000
12.1954174042 6.7017159462 -1.2989863157 0.0000000000
13.0777215958 8.9511508942 0.3687672913 0.0000000000
12.0695819855 8.2580280304 -1.0226298571 0.0000000000
12.0650968552 7.4137916565 -1.1560264826 0.0000000000
14.4307012558 8.8674144745 0.2956437767 0.0000000000
11.6832981110 8.8584680557 -0.9396641850 0.0000000000
14.2441034317 7.8178172112 -0.9462707043 0.0000000000
19.7193374634 13.4819002151 1.3911504745 0.0000000000
13.2679662704 9.0677690506 -0.7485927343 0.0000000000
13.8934736252 8.5272789001 -0.8543321490 0.0000000000
17.4596939087 11.9280653000 2.5963044167 0.0000000000
12.8922901154 9.7609777451 -0.6588066220 0.0000000000
14.0932235718 7.7222099304 -0.5611839294 0.0000000000
16.7720985413 11.4497308731 5.4414114952 0.0000000000
27.4664764404 16.8380718231 5.8739714622 0.0000000000
12.7169561386 8.6781721115 -0.3582523465 0.0000000000
4.1883683205 2.5596020222 -2.2889006138 0.0000000000
14.5016736984 10.9397048950 -0.3170753121 0.0000000000
13.3717489243 8.1685581207 -0.4560232162 0.0000000000
6.1822595596 4.2046146393 -2.0929830074 0.0000000000
8.1244897842 4.9611563683 -1.9039067030 0.0000000000
12.7586851120 8.6740493774 0.0000000000 0.0000000000
14.0489501953 7.6629176140 -0.1863038987 0.0000000000
8.7729473114 5.9643278122 -1.6504179239 0.0000000000
10.0082197189 6.1090435982 -1.4924904108 0.0000000000
13.3643894196 8.1544570923 -0.0909913182 0.0000000000
10.1289396286 6.8810362816 -1.3190072775 0.0000000000
12.2198991776 6.6569724083 -1.2989863157 0.0000000000
13.0542020798 8.8649663925 0.3671854138 0.0000000000
12.1294803619 8.2339057922 -1.0251411200 0.0000000000
12.1228275299 7.3881936073 -1.1589555740 0.0000000000
14.3128395081 8.7228851318 0.2925721407 0.0000000000
11.7443943024 8.8371877670 -0.9419666529 0.0000000000
14.3007230759 7.7808251381 -0.9481311440 0.0000000000
19.4579772949 13.1988201141 1.3692902327 0.0000000000
13.3176469803 9.0302906036 -0.7495233417 0.0000000000
13.9519309998 8.4929161072 -0.8560069203 0.0000000000
17.5230121613 11.8773574829 2.5992293358 0.0000000000
12.9439554214 9.7256641388 -0.6596207619 0.0000000000
14.1425085068 7.6819519997 -0.5620214939 0.0000000000
12.7453670502 8.6292619705 -0.3581593037 0.0000000000
4.1875343323 2.5400583744 -2.2838289738 0.0000000000
14.5570764542 10.9059429169 -0.3174941838 0.0000000000
13.4261150360 8.1407556534 -0.4569541216 0.0000000000
6.2217063904 4.2013354301 -2.1016094685 0.0000000000
8.1442508698 4.9362201691 -1.9046911001 0.0000000000
12.7741174698 8.6227407455 0.0000000000 0.0000000000
8.8221616745 5.9551048279 -1.6559520960 0.0000000000
10.0284233093 6.0758213997 -1.4924904108 0.0000000000
13.4084634781 8.1204538345 -0.0911075622 0.0000000000
10.1154346466 6.8229465485 -1.3142949343 0.0000000000
12.2103738785 6.5993704796 -1.2956403494 0.0000000000
13.0702648163 8.8126869202 0.3668131828 0.0000000000
15.4484968185 8.3460035324 0.2044174224 0.0000000000
12.1732625961 8.2047882080 -1.0265362263 0.0000000000
12.2188959122 7.3912849426 -1.1657902002 0.0000000000
14.3416872025 8.6753740311 0.2925721407 0.0000000000
11.7896232605 8.8101406097 -0.9432457685 0.0000000000
14.3650999069 7.7542247772 -0.9506892562 0.0000000000
19.3062267303 13.0026121140 1.3555693626 0.0000000000
13.5927753448 8.2158727646 0.6470829248 0.0000000000
12.8304567337 8.6379709244 -0.7204878926 0.0000000000
14.0142068863 8.4672594070 -0.8581003547 0.0000000000
18.2935161591 12.3112802505 2.7074494362 0.0000000000
12.9953546524 9.6970281601 -0.6605977416 0.0000000000
17.0023136139 11.4336967468 5.4900693893 0.0000000000
27.4423294067 16.5673389435 5.8445549011 0.0000000000
12.7856864929 8.5981044769 -0.3585315049 0.0000000000
4.3272871971 2.6031811237 -2.3548290730 0.0000000000
14.6258363724 10.8739910126 -0.3181224763 0.0000000000
13.4798469543 8.1059150696 -0.4577686489 0.0000000000
6.2338633537 4.1763596535 -2.1005313396 0.0000000000
8.1488418579 4.8982539177 -1.9015532732 0.0000000000
14.1527748108 7.5886511803 -0.1869557947 0.0000000000
8.8482465744 5.9233851433 -1.6565669775 0.0000000000
10.0608282089 6.0451555252 -1.4940056801 0.0000000000
13.4518527985 8.0794935226 -0.0912005529 0.0000000000
10.1932573318 6.8212146759 -1.3211492300 0.0000000000
12.2976703644 6.5884270668 -1.3023322821 0.0000000000
13.2088394165 8.8358716965 0.3697908819 0.0000000000
12.2198381424 8.1712064743 -1.0279314518 0.0000000000
12.2219734192 7.3320941925 -1.1635119915 0.0000000000
14.3131532669 8.5832185745 0.2913155556 0.0000000000
11.8361911774 8.7743158340 -0.9442691207 0.0000000000
14.4321537018 7.7222452164 -0.9532473683 0.0000000000
20.0908489227 13.4242763519 1.4071968794 0.0000000000
13.8936071396 8.3283309937 0.6599464417 0.0000000000
12.8620300293 8.5908870697 -0.7204878926 0.0000000000
14.0691318512 8.4302101135 -0.8595657349 0.0000000000
18.5861568451 12.4094905853 2.7440102100 0.0000000000
20.1926536560 12.0946283340 1.9215034246 0.0000000000
13.0468683243 9.6612243652 -0.6614118814 0.0000000000
14.2416324615 7.6075181961 -0.5638362765 0.0000000000
17.3751525879 11.5921678543 5.5967030525 0.0000000000
4.3545713425 2.5999677181 -2.3649718761 0.0000000000
13.5272531509 8.0734643936 -0.4584668279 0.0000000000
6.2476782799 4.1556644440 -2.1005313396 0.0000000000
8.1448297501 4.8591470718 -1.8968464136 0.0000000000
12.8573207855 8.5488538742 0.0000000000 0.0000000000
14.2025804520 7.5548257828 -0.1872817427 0.0000000000
8.8678407669 5.8940105438 -1.6565669775 0.0000000000
10.0740032196 6.0076947212 -1.4929955006 0.0000000000
17.8016586304 13.1293115616 0.1285595298 0.0000000000
13.4957504272 8.0450811386 -0.0913167894 0.0000000000
10.2058830261 6.7807726860 -1.3198640347 0.0000000000
12.3405523300 6.5588254929 -1.3045629263 0.0000000000
13.0948276520 8.6968889236 0.3657896221 0.0000000000
12.2767868042 8.1505022049 -1.0304425955 0.0000000000
12.3352832794 7.3445534706 -1.1719738245 0.0000000000
19.8157424927 14.5934162140 0.7162089348 0.0000000000
14.4019021988 8.5750398636 0.2925721407 0.0000000000
11.8829841614 8.7512912750 -0.9458041191 0.0000000000
14.4894266129 7.6911940575 -0.9553403854 0.0000000000
19.5728931427 12.9845113754 1.3678948879 0.0000000000
14.1176099777 8.3957595825 -0.8608217835 0.0000000000
19.8449726105 13.1550340652 2.9234018326 0.0000000000
20.4862422943 12.1783533096 1.9455872774 0.0000000000
13.1078128815 9.6392164230 -0.6628773808 0.0000000000
14.2879753113 7.5714802742 -0.5646738410 0.0000000000
17.7227287292 11.7393159866 5.6960897446 0.0000000000
21.0891666412 12.5317897797 4.4727420807 0.0000000000
12.8854074478 8.5351352692 -0.3596481383 0.0000000000
4.4353599548 2.6272456646 -2.4038527012 0.0000000000
12.9608621597 9.4998197556 -0.2804950774 0.0000000000
13.5725545883 8.0363817215 -0.4590486288 0.0000000000
6.2492876053 4.1253423691 -2.0962181091 0.0000000000
8.1684923172 4.8346824646 -1.8984153271 0.0000000000
12.8937606812 8.5083274841 0.0000000000 0.0000000000
14.2487792969 7.5188865662 -0.1875611395 0.0000000000
8.8939352036 5.8689250946 -1.6577968597 0.0000000000
10.1427240372 6.0007796288 -1.5000665188 0.0000000000
13.5340785980 8.0040321350 -0.0913865343 0.0000000000
10.2460918427 6.7560524940 -1.3220059872 0.0000000000
12.4514541626 6.5621304512 -1.3138573170 0.0000000000
13.1584939957 8.6731338501 0.3667201400 0.0000000000
12.3251543045 8.1207704544 -1.0321167707 0.0000000000
12.3780088425 7.3115887642 -1.1736011505 0.0000000000
16.2031097412 11.8458604813 0.5841379166 0.0000000000
14.5247220993 8.5796346664 0.2944569886 0.0000000000
11.9295711517 8.7215375900 -0.9470832348 0.0000000000
14.5409212112 7.6535892487 -0.9569683075 0.0000000000
16.8898410797 11.1198883057 1.1776640415 0.0000000000
13.9706249237 8.2457571030 0.6609234214 0.0000000000
12.9602603912 8.5294990540 -0.7227213979 0.0000000000
14.1777944565 8.3646965027 -0.8627058864 0.0000000000
19.8277530670 13.0442237854 2.9141397476 0.0000000000
20.3088512421 11.9771547318 1.9247579575 0.0000000000
13.1704320908 9.6146116257 -0.6643428206 0.0000000000
14.3320112228 7.5308570862 -0.5653718710 0.0000000000
17.6667404175 11.6137094498 5.6650314331 0.0000000000
21.1463413239 12.4660921097 4.4756116867 0.0000000000
12.9151220322 8.4901046753 -0.3596481383 0.0000000000
4.4757590294 2.6301140785 -2.4207572937 0.0000000000
13.6177616119 7.9990811348 -0.4596304297 0.0000000000
6.2700939178 4.1077246666 -2.0983746052 0.0000000000
8.2123775482 4.8220276833 -1.9046911001 0.0000000000
12.9233818054 8.4632682800 0.0000000000 0.0000000000
14.2997455597 7.4820833206 -0.1878870875 0.0000000000
8.9209804535 5.8421745300 -1.6590266228 0.0000000000
10.1909856796 5.9814066887 -1.5041071177 0.0000000000
13.5826358795 7.9688849449 -0.0915260166 0.0000000000
10.2962341309 6.7376670837 -1.3254330158 0.0000000000
12.3930997849 6.4762020111 -1.3053065538 0.0000000000
13.1317977905 8.5899343491 0.3651382625 0.0000000000
12.3734645844 8.0908012390 -1.0337909460 0.0000000000
12.4997663498 7.3247742653 -1.1827139854 0.0000000000
20.9785251617 15.2250137329 0.7543757558 0.0000000000
14.1163568497 8.2720851898 0.2855911851 0.0000000000
11.9760961533 8.6915655136 -0.9483624101 0.0000000000
14.6029491425 7.6212611198 -0.9592938423 0.0000000000
16.6611194611 10.8861265182 1.1590595245 0.0000000000
14.0234661102 8.2110767365 0.6620631814 0.0000000000
14.2413806915 8.3353338242 -0.8647993207 0.0000000000
20.4915008545 13.3786354065 3.0048105717 0.0000000000
20.3505344391 11.9061908722 1.9247579575 0.0000000000
13.2298030853 9.5873413086 -0.6656454802 0.0000000000
14.3830280304 7.4937129021 -0.5663490295 0.0000000000
17.5065422058 11.4210815430 5.6008439064 0.0000000000
12.9647750854 8.4580802917 -0.3602064550 0.0000000000
4.4813246727 2.6134312153 -2.4190669060 0.0000000000
12.8047876358 9.2521009445 -0.2757480145 0.0000000000
13.6649379730 7.9659609795 -0.4603286088 0.0000000000
6.3159713745 4.1079115868 -2.1091575623 0.0000000000
8.2520456314 4.8085913658 -1.9101823568 0.0000000000
12.9547290802 8.4225463867 0.0000000000 0.0000000000
14.3457784653 7.4456777573 -0.1881664693 0.0000000000
8.9369907379 5.8104047775 -1.6584117413 0.0000000000
10.2347650528 5.9615592957 -1.5076426268 0.0000000000
13.6331834793 7.9378881454 -0.0916887522 0.0000000000
10.3118505478 6.6991534233 -1.3245762587 0.0000000000
12.5099763870 6.4845557213 -1.3153444529 0.0000000000
13.1769800186 8.5572309494 0.3656035066 0.0000000000
12.4203071594 8.0627603531 -1.0354651213 0.0000000000
12.5239877701 7.2832832336 -1.1827139854 0.0000000000
20.1239051819 14.5031423569 0.7219107151 0.0000000000
13.9722652435 8.1222610474 0.2821007073 0.0000000000
12.0290336609 8.6660423279 -0.9501532316 0.0000000000
14.6565122604 7.5874805450 -0.9611542821 0.0000000000
20.0372238159 12.9974145889 1.3909178972 0.0000000000
14.1059074402 8.1966562271 0.6646685004 0.0000000000
14.3000297546 8.3061180115 -0.8666834235 0.0000000000
20.3858318329 13.2134361267 2.9828741550 0.0000000000
20.3761138916 11.8306331635 1.9234561920 0.0000000000
13.2809877396 9.5574245453 -0.6666224003 0.0000000000
43.1386947632 25.0368137360 9.0940017700 0.0000000000
13.0061769485 8.4237365723 -0.3605786860 0.0000000000
4.4527640343 2.5759882927 -2.3987812996 0.0000000000
12.7492589951 9.1444120407 -0.2738631666 0.0000000000
13.7203512192 7.9342250824 -0.4612595141 0.0000000000
6.3367447853 4.0900173187 -2.1113142967 0.0000000000
8.2619886398 4.7758312225 -1.9086134434 0.0000000000
13.0075788498 8.3924551010 0.0000000000 0.0000000000
14.4085397720 7.4113430977 -0.1886321157 0.0000000000
8.9781560898 5.7904634476 -1.6621011496 0.0000000000
10.2829980850 5.9416785240 -1.5116832256 0.0000000000
12.9118461609 9.2507925034 0.0923164338 0.0000000000
13.6781272888 7.9002542496 -0.0918049887 0.0000000000
10.3385152817 6.6652722359 -1.3250046968 0.0000000000
12.5041971207 6.4262843132 -1.3123703003 0.0000000000
12.4651489258 8.0301609039 -1.0368602276 0.0000000000
12.6425743103 7.2933106422 -1.1915013790 0.0000000000
20.1548976898 14.4188499451 0.7212125063 0.0000000000
14.0857295990 8.1258449554 0.2838459313 0.0000000000
12.0706920624 8.6353950500 -0.9511765242 0.0000000000
14.7255392075 7.5581550598 -0.9639449716 0.0000000000
14.2002229691 8.1852893829 0.6677622199 0.0000000000
13.1314067841 8.4496450424 -0.7273745537 0.0000000000
14.3566255569 8.2721052170 -0.8683581948 0.0000000000
20.7356872559 13.3376426697 3.0272345543 0.0000000000
20.4794712067 11.7952508926 1.9293143749 0.0000000000
13.3337812424 9.5249452591 -0.6675993800 0.0000000000
14.4870681763 7.4229817390 -0.5684430003 0.0000000000
13.0504217148 8.3846559525 -0.3609508872 0.0000000000
4.5187783241 2.5921199322 -2.4292097092 0.0000000000
12.7044878006 9.0419645309 -0.2721877396 0.0000000000
13.7701511383 7.8958177567 -0.4619576931 0.0000000000
6.3516926765 4.0667643547 -2.1113142967 0.0000000000
8.3100643158 4.7630715370 -1.9156737328 0.0000000000
13.0550966263 8.3555049896 0.0000000000 0.0000000000
14.4641151428 7.3730149269 -0.1890046299 0.0000000000
9.0059776306 5.7617783546 -1.6633310318 0.0000000000
10.3288068771 5.9177579880 -1.5152187347 0.0000000000
12.8739442825 9.1524181366 0.0918049887 0.0000000000
13.7278175354 7.8619952202 -0.0919444710 0.0000000000
10.4064302444 6.6551899910 -1.3305736780 0.0000000000
12.5915470123 6.4129457474 -1.3190622330 0.0000000000
13.1637516022 8.4153337479 0.3635563552 0.0000000000
15.1131334305 7.6938819885 0.1974327713 0.0000000000
12.5146713257 7.9973120689 -1.0385344028 0.0000000000
12.6761417389 7.2508831024 -1.1921522617 0.0000000000
13.2532968521 9.4081878662 0.4730120897 0.0000000000
13.9626684189 7.9867897034 0.2807743251 0.0000000000
12.1217908859 8.6049594879 -0.9527115226 0.0000000000
14.7816162109 7.5186157227 -0.9658054113 0.0000000000
19.6013164520 12.5162925720 1.3544065952 0.0000000000
14.2891168594 8.1669034958 0.6705303192 0.0000000000
13.1555519104 8.3971595764 -0.7270022631 0.0000000000
14.4145946503 8.2352819443 -0.8700329661 0.0000000000
20.6907196045 13.2017583847 3.0135850906 0.0000000000
20.5156421661 11.7161560059 1.9286634922 0.0000000000
13.3946876526 9.4945011139 -0.6689020395 0.0000000000
14.5426931381 7.3843131065 -0.5695598125 0.0000000000
17.5339603424 11.1789712906 5.5718564987 0.0000000000
27.8013229370 15.8704586029 5.8366627693 0.0000000000
13.0998420715 8.3519496918 -0.3615092039 0.0000000000
4.5246481895 2.5745377541 -2.4275193214 0.0000000000
12.6706428528 8.9514093399 -0.2707915306 0.0000000000
13.8219566345 7.8615398407 -0.4627722204 0.0000000000
6.3691010475 4.0466337204 -2.1123924255 0.0000000000
8.2720832825 4.7030177116 -1.9031221867 0.0000000000
13.1179485321 8.3313283920 0.0000000000 0.0000000000
14.5170412064 7.3394465446 -0.1893771440 0.0000000000
9.0183620453 5.7276434898 -1.6621011496 0.0000000000
10.3597507477 5.8875489235 -1.5167338848 0.0000000000
13.7830009460 7.8298344612 -0.0921304524 0.0000000000
10.4531030655 6.6337409019 -1.3335725069 0.0000000000
12.6671838760 6.3958802223 -1.3246388435 0.0000000000
13.1930465698 8.3693323135 0.3635563552 0.0000000000
14.5757226944 7.3563423157 0.1900756061 0.0000000000
12.5660991669 7.9685373306 -1.0404875278 0.0000000000
12.7256469727 7.2203631401 -1.1944304705 0.0000000000
13.1520519257 9.2674427032 0.4682412446 0.0000000000
13.9452419281 7.9123449326 0.2798667848 0.0000000000
12.1745958328 8.5786895752 -0.9545023441 0.0000000000
14.8362960815 7.4813561440 -0.9676658511 0.0000000000
19.6921100616 12.4777173996 1.3576624393 0.0000000000
14.2340936661 8.0696687698 0.6666224003 0.0000000000
14.4745311737 8.2026405334 -0.8719170094 0.0000000000
20.2972545624 12.8512334824 2.9497256279 0.0000000000
20.7714824677 11.7663011551 1.9488418102 0.0000000000
13.4571657181 9.4683847427 -0.6703674793 0.0000000000
14.5969457626 7.3478841782 -0.5706765652 0.0000000000
13.1607828140 8.3231172562 -0.3623466790 0.0000000000
4.5363178253 2.5613017082 -2.4292097092 0.0000000000
12.6544198990 8.8771877289 -0.2698141932 0.0000000000
13.8618783951 7.8235220909 -0.4632376730 0.0000000000
6.3727111816 4.0193262100 -2.1091575623 0.0000000000
8.3047151566 4.6851968765 -1.9070445299 0.0000000000
13.1488876343 8.2899150848 0.0000000000 0.0000000000
14.5734786987 7.3074011803 -0.1897962242 0.0000000000
9.0406494141 5.6998143196 -1.6627161503 0.0000000000
10.3792171478 5.8531627655 -1.5167338848 0.0000000000
12.7623291016 8.9429197311 0.0905728638 0.0000000000
13.8297967911 7.7958703041 -0.0922699422 0.0000000000
10.4784088135 6.6011605263 -1.3340008259 0.0000000000
12.7274961472 6.3734555244 -1.3287284374 0.0000000000
13.2308797836 8.3319292068 0.3638355136 0.0000000000
14.6536874771 7.3348212242 0.1907740682 0.0000000000
12.6059627533 7.9353260994 -1.0416036844 0.0000000000
12.8155260086 7.2152853012 -1.2006142139 0.0000000000
13.1532278061 9.2031478882 0.4671939909 0.0000000000
14.0306482315 7.8994126320 0.2810535431 0.0000000000
12.2291421890 8.5565776825 -0.9565489888 0.0000000000
14.8860235214 7.4446191788 -0.9692937732 0.0000000000
19.8314037323 12.4740056992 1.3644065857 0.0000000000
14.2329092026 8.0067462921 0.6653198004 0.0000000000
13.2360830307 8.3223066330 -0.7283051610 0.0000000000
14.5329885483 8.1722173691 -0.8738011122 0.0000000000
20.2725315094 12.7416009903 2.9399759769 0.0000000000
13.5147008896 9.4420194626 -0.6716701388 0.0000000000
14.6498451233 7.3137230873 -0.5717933774 0.0000000000
13.3982944489 8.4112529755 -0.3681159317 0.0000000000
4.5642085075 2.5560796261 -2.4393525124 0.0000000000
12.6590728760 8.8146781921 -0.2692557275 0.0000000000
13.9170141220 7.7907118797 -0.4641685486 0.0000000000
6.4030280113 4.0072741508 -2.1145491600 0.0000000000
8.3552474976 4.6753330231 -1.9148892164 0.0000000000
13.1879177094 8.2503299713 0.0000000000 0.0000000000
14.6239690781 7.2689476013 -0.1901221722 0.0000000000
9.0738935471 5.6766066551 -1.6651757956 0.0000000000
10.4238271713 5.8304557800 -1.5202693939 0.0000000000
12.7409276962 8.8617725372 0.0902009010 0.0000000000
13.8813638687 7.7612118721 -0.0924326777 0.0000000000
10.4676647186 6.5434632301 -1.3297169209 0.0000000000
12.7353973389 6.3219060898 -1.3272413015 0.0000000000
13.2836217880 8.3005285263 0.3644868731 0.0000000000
12.6674280167 7.9124135971 -1.0443938971 0.0000000000
12.8719615936 7.1880006790 -1.2035433054 0.0000000000
13.0801839828 9.0841951370 0.4634703994 0.0000000000
14.0406780243 7.8406391144 0.2807044983 0.0000000000
12.2786083221 8.5275001526 -0.9580839276 0.0000000000
14.9512748718 7.4121222496 -0.9718518853 0.0000000000
14.2572813034 7.9550676346 0.6651569605 0.0000000000
14.5998010635 8.1428403854 -0.8761038780 0.0000000000
20.4112091064 12.7295856476 2.9536254406 0.0000000000
13.5705671310 9.4107294083 -0.6728099585 0.0000000000
14.7003650665 7.2749528885 -0.5727705359 0.0000000000
19.3991870880 12.0890274048 6.1246938705 0.0000000000
27.9900531769 15.5918636322 5.8416852951 0.0000000000
4.5540881157 2.5295701027 -2.4292097092 0.0000000000
12.6733150482 8.7590665817 -0.2689066827 0.0000000000
13.9650983810 7.7537302971 -0.4648667276 0.0000000000
6.4038882256 3.9767708778 -2.1102359295 0.0000000000
8.3577985764 4.6385254860 -1.9117513895 0.0000000000
13.2404260635 8.2190132141 0.0000000000 0.0000000000
14.6779565811 7.2319984436 -0.1904946864 0.0000000000
9.1037282944 5.6511516571 -1.6670204401 0.0000000000
10.4545249939 5.7998094559 -1.5217846632 0.0000000000
13.9258613586 7.7224087715 -0.0925489143 0.0000000000
10.5681734085 6.5550990105 -1.3395699263 0.0000000000
12.7895488739 6.2932381630 -1.3305872679 0.0000000000
14.7583732605 7.2588205338 0.1914725304 0.0000000000
12.7119283676 7.8786582947 -1.0457890034 0.0000000000
12.8760490417 7.1314358711 -1.2015905380 0.0000000000
13.0756025314 9.0135192871 0.4621904194 0.0000000000
14.1379337311 7.8303346634 0.2821007073 0.0000000000
12.3247327805 8.4959154129 -0.9593631029 0.0000000000
15.0128955841 7.3774986267 -0.9741774201 0.0000000000
14.2849626541 7.9052519798 0.6651569605 0.0000000000
14.0242919922 8.6818809509 -0.7683219314 0.0000000000
14.6560983658 8.1072969437 -0.8777786493 0.0000000000
20.1584262848 12.4744129181 2.9107275009 0.0000000000
13.6329631805 9.3836965561 -0.6742753983 0.0000000000
14.7400264740 7.2306370735 -0.5733289123 0.0000000000
19.6745891571 12.1655092239 6.1981983185 0.0000000000
27.0041007996 14.9193649292 5.6250076294 0.0000000000
4.5152606964 2.4874193668 -2.4038527012 0.0000000000
12.6807260513 8.6989383698 -0.2684180140 0.0000000000
14.0165958405 7.7184362411 -0.4656812549 0.0000000000
6.4538035393 3.9766199589 -2.1220972538 0.0000000000
8.3773746490 4.6112146378 -1.9125357866 0.0000000000
13.2860641479 8.1832342148 0.0000000000 0.0000000000
14.7390518188 7.1982712746 -0.1909603328 0.0000000000
9.1435909271 5.6317763329 -1.6707099676 0.0000000000
10.5025186539 5.7785830498 -1.5258252621 0.0000000000
12.7925853729 8.7658262253 0.0901311561 0.0000000000
13.9807710648 7.6891717911 -0.0927348956 0.0000000000
10.5842170715 6.5140004158 -1.3387130499 0.0000000000
12.8794507980 6.2817277908 -1.3376510143 0.0000000000
12.7563476562 7.8446888924 -1.0471842289 0.0000000000
12.9567718506 7.1171569824 -1.2067978382 0.0000000000
13.0376892090 8.9204092026 0.4597468078 0.0000000000
12.3707866669 8.4641132355 -0.9606422186 0.0000000000
15.0744562149 7.3425354958 -0.9765030146 0.0000000000
13.8437147141 8.5067214966 0.9462707043 0.0000000000
14.1267757416 7.7534227371 0.6565270424 0.0000000000
14.0885591507 8.6537866592 -0.7701831460 0.0000000000
14.7193298340 8.0753011703 -0.8798720837 0.0000000000
20.3473300934 12.4932975769 2.9316890240 0.0000000000
26.3184795380 14.4328365326 2.4503724575 0.0000000000
12.8274154663 8.7633981705 -0.6329168081 0.0000000000
14.7903413773 7.1913766861 -0.5743061304 0.0000000000
19.5753231049 12.0098762512 6.1536817551 0.0000000000
26.7463150024 14.6613864899 5.5611519814 0.0000000000
13.3308124542 8.1787366867 -0.3639285564 0.0000000000
4.3680286407 2.3864738941 -2.3210194111 0.0000000000
12.6845674515 8.6366147995 -0.2678595483 0.0000000000
14.0680160522 7.6828770638 -0.4664958119 0.0000000000
6.4544997215 3.9460310936 -2.1177840233 0.0000000000
8.3968629837 4.5838232040 -1.9133203030 0.0000000000
13.3282003403 8.1451501846 0.0000000000 0.0000000000
14.8085403442 7.1651062965 -0.1915190965 0.0000000000
9.1473064423 5.5879230499 -1.6676353216 0.0000000000
10.5470075607 5.7551918030 -1.5293607712 0.0000000000
12.7338037491 8.6603832245 0.0895034745 0.0000000000
14.0426416397 7.6594767570 -0.0929673687 0.0000000000
10.5390062332 6.4355621338 -1.3301453590 0.0000000000
12.8761997223 6.2245979309 -1.3350485563 0.0000000000
12.8040904999 7.8125834465 -1.0488582850 0.0000000000
13.0060434341 7.0852365494 -1.2090760469 0.0000000000
13.0489015579 8.8613672256 0.4590486288 0.0000000000
12.4182395935 8.4299249649 -0.9619213939 0.0000000000
15.1251668930 7.3020238876 -0.9781308770 0.0000000000
14.4029893875 7.8397254944 0.6680878997 0.0000000000
14.1425638199 8.6191120148 -0.7714860439 0.0000000000
14.7754993439 8.0391445160 -0.8815468550 0.0000000000
20.5976409912 12.5481939316 2.9614250660 0.0000000000
25.5806846619 13.9123106003 2.3771443367 0.0000000000
12.7818441391 8.6669797897 -0.6291717291 0.0000000000
14.8621702194 7.1622657776 -0.5761209130 0.0000000000
19.8382472992 12.0760755539 6.2230453491 0.0000000000
27.1292285919 14.7483663559 5.6300296783 0.0000000000
13.3763589859 8.1425504684 -0.3643938303 0.0000000000
4.4145817757 2.3919363022 -2.3413052559 0.0000000000
14.1052961349 7.6394362450 -0.4668448865 0.0000000000
6.4781146049 3.9294698238 -2.1210188866 0.0000000000
8.4162616730 4.5563521385 -1.9141047001 0.0000000000
13.3702325821 8.1068716049 0.0000000000 0.0000000000
14.8587064743 7.1254777908 -0.1918450445 0.0000000000
9.1735162735 5.5600562096 -1.6688652039 0.0000000000
10.5600528717 5.7145638466 -1.5283505917 0.0000000000
12.7639560699 8.6158809662 0.0895034745 0.0000000000
14.0904016495 7.6218304634 -0.0931068584 0.0000000000
10.6668500900 6.4626193047 -1.3434253931 0.0000000000
12.9265832901 6.1933808327 -1.3380228281 0.0000000000
14.4243793488 8.7357149124 0.3924026489 0.0000000000
23.0403823853 11.0341577530 0.2974064052 0.0000000000
12.8551778793 7.7823061943 -1.0508115292 0.0000000000
13.0762948990 7.0644283295 -1.2133070230 0.0000000000
13.0532302856 8.7978868484 0.4581177235 0.0000000000
12.4626770020 8.3998537064 -0.9632005692 0.0000000000
14.9920701981 7.1733469963 -0.9678984284 0.0000000000
18.4431686401 9.9555501938 0.8538759351 0.0000000000
14.1930799484 8.5820970535 -0.7726027966 0.0000000000
14.8421401978 8.0083847046 -0.8838496208 0.0000000000
20.6243267059 12.4659500122 2.9589877129 0.0000000000
28.5063991547 15.3747959137 2.6440198421 0.0000000000
12.8252830505 8.6312351227 -0.6298230290 0.0000000000
19.7777538300 11.9448318481 6.1909513474 0.0000000000
26.9484691620 14.5284614563 5.5819587708 0.0000000000
13.4218158722 8.1061449051 -0.3648591042 0.0000000000
4.5534076691 2.4476585388 -2.4106144905 0.0000000000
12.7795925140 8.5745859146 -0.2686274350 0.0000000000
6.4944095612 3.9099526405 -2.1220972538 0.0000000000
8.4797010422 4.5544004440 -1.9250873327 0.0000000000
13.4107513428 8.0707406998 0.0000000000 0.0000000000
14.9171371460 7.0959439278 -0.1923106909 0.0000000000
9.2078704834 5.5413994789 -1.6719397306 0.0000000000
10.6174011230 5.7001600266 -1.5339063406 0.0000000000
14.1402711868 7.5883030891 -0.0932695940 0.0000000000
10.6950387955 6.4313101768 -1.3442821503 0.0000000000
12.9614391327 6.1573162079 -1.3395099640 0.0000000000
14.3950033188 8.6528110504 0.3908207417 0.0000000000
23.2105312347 11.0211706161 0.2991292775 0.0000000000
12.9082765579 7.7560753822 -1.0530437231 0.0000000000
13.1137046814 7.0285601616 -1.2146089077 0.0000000000
13.0623960495 8.7412109375 0.4574195445 0.0000000000
15.6545543671 8.3903808594 0.3100245595 0.0000000000
12.5103683472 8.3717994690 -0.9647355080 0.0000000000
15.0193834305 7.1253037453 -0.9681310058 0.0000000000
20.2231292725 12.1416769028 1.3737088442 0.0000000000
14.2385911942 8.5452651978 -0.7735334039 0.0000000000
14.9038324356 7.9779734612 -0.8859430552 0.0000000000
20.6349124908 12.3791074753 2.9546003342 0.0000000000
12.8804197311 8.6064214706 -0.6311256886 0.0000000000
19.8238830566 11.8831539154 6.1930222511 0.0000000000
27.5239353180 14.7211160660 5.6910152435 0.0000000000
13.4657726288 8.0718717575 -0.3653243482 0.0000000000
4.6323041916 2.4692656994 -2.4478049278 0.0000000000
12.8227615356 8.5387907028 -0.2689066827 0.0000000000
14.2134275436 7.5733308792 -0.4687066972 0.0000000000
6.5443944931 3.9089868069 -2.1339585781 0.0000000000
8.5059328079 4.5303049088 -1.9274407625 0.0000000000
13.4560136795 8.0341320038 0.0000000000 0.0000000000
14.9779949188 7.0608854294 -0.1927763373 0.0000000000
9.2305517197 5.5112504959 -1.6725546122 0.0000000000
10.6582489014 5.6742520332 -1.5369368792 0.0000000000
14.2019834518 7.5576887131 -0.0935020670 0.0000000000
10.7447462082 6.4102387428 -1.3477092981 0.0000000000
13.0657300949 6.1510515213 -1.3480607271 0.0000000000
14.5865440369 8.6987762451 0.3951942325 0.0000000000
12.9592647552 7.7252721786 -1.0549969673 0.0000000000
13.1804037094 7.0051946640 -1.2185143232 0.0000000000
13.1028203964 8.7021970749 0.4577686489 0.0000000000
15.6731529236 8.3300542831 0.3098151088 0.0000000000
12.5661172867 8.3457469940 -0.9667821527 0.0000000000
15.0730743408 7.0864248276 -0.9699914455 0.0000000000
25.4042930603 13.4906454086 1.1718811989 0.0000000000
14.3129644394 8.5220851898 -0.7759529948 0.0000000000
14.9704008102 7.9465022087 -0.8882458210 0.0000000000
20.6507034302 12.2907581329 2.9507005215 0.0000000000
25.9409332275 13.7640151978 2.3973228931 0.0000000000
12.9470224380 8.5857048035 -0.6329168081 0.0000000000
20.8382472992 12.3925304413 6.4963579178 0.0000000000
13.5248003006 8.0432147980 -0.3661618233 0.0000000000
4.6532859802 2.4606695175 -2.4545669556 0.0000000000
14.2632074356 7.5392351151 -0.4695212245 0.0000000000
6.5672616959 3.8931560516 -2.1371934414 0.0000000000
8.5313129425 4.5075702667 -1.9297941923 0.0000000000
13.4963464737 7.9976224899 0.0000000000 0.0000000000
15.0375623703 7.0281133652 -0.1932419837 0.0000000000
9.2487764359 5.4806108475 -1.6725546122 0.0000000000
10.6980590820 5.6499953270 -1.5399672985 0.0000000000
14.2517290115 7.5236234665 -0.0936648026 0.0000000000
10.7659444809 6.3745727539 -1.3477092981 0.0000000000
13.1618442535 6.1430630684 -1.3558681011 0.0000000000
14.6738119125 8.6849832535 0.3967761099 0.0000000000
19.3993434906 9.0501842499 0.2492123097 0.0000000000
13.0157194138 7.7005414963 -1.0575081110 0.0000000000
13.2282476425 6.9744639397 -1.2207925320 0.0000000000
13.0948886871 8.6344881058 0.4564886689 0.0000000000
15.7269010544 8.2883462906 0.3103037775 0.0000000000
12.6051712036 8.3084230423 -0.9675496817 0.0000000000
15.1182069778 7.0465235710 -0.9713867903 0.0000000000
20.2296810150 11.9590349197 1.3685925007 0.0000000000
25.6292285919 13.5013284683 1.1801854372 0.0000000000
14.3721055984 8.4928693771 -0.7776281238 0.0000000000
