VERSION 0.7
FIELDS x y z rgb
SIZE 4 4 4 4
TYPE F F F F
COUNT 1 1 1 1
WIDTH 890
HEIGHT 1
VIEWPOINT 0.0 0.0 0.0 1.0 0.0 0.0 0.0
POINTS 890
DATA ascii
14.4419002533 8.3716897964 0.4858120084 0.0000000000
13.4825000763 7.8155598640 -0.9987609982 0.0000000000
16.4004001617 6.5232000351 -1.0278999805 0.0000000000
18.7339992523 9.6651897430 1.2276599407 0.0000000000
14.5211000443 7.4884800911 -0.7610629797 0.0000000000
15.3172998428 6.9708099365 -0.8819659948 0.0000000000
15.9099998474 6.3152799606 -0.5977590084 0.0000000000
14.3626003265 7.3972401619 -0.3759320080 0.0000000000
13.8224000931 7.9739599228 -0.2785399854 0.0000000000
15.1326999664 6.8549699783 -0.4834850132 0.0000000000
14.3781003952 7.3766698837 0.0000000000 0.0000000000
15.9397001266 6.2980999947 -0.1995279938 0.0000000000
11.4813003540 5.1960601807 -1.6041100025 0.0000000000
13.9533004761 8.0396900177 0.0935951024 0.0000000000
15.1279001236 6.8432297707 -0.0965010002 0.0000000000
11.6719999313 5.9831299782 -1.4128199816 0.0000000000
14.1337995529 5.5760002136 -1.4183299541 0.0000000000
20.8295993805 8.2134103775 0.2606669962 0.0000000000
13.9148998260 7.1267700195 -1.0932199955 0.0000000000
14.1150999069 6.3761901855 -1.2644000053 0.0000000000
14.3795003891 8.2719097137 0.4827870131 0.0000000000
13.5235996246 7.7764101028 -0.9997839928 0.0000000000
16.0986995697 6.3414502144 -1.0076700449 0.0000000000
18.7623996735 9.6012001038 1.2274299860 0.0000000000
14.5635995865 7.4493799210 -0.7619940042 0.0000000000
15.3731002808 6.9347600937 -0.8838499784 0.0000000000
13.9184999466 7.9937801361 -0.6539220214 0.0000000000
15.9568996429 6.2727298737 -0.5987359881 0.0000000000
14.4119997025 7.3623099327 -0.3765839934 0.0000000000
13.8224000931 7.9097700119 -0.2779819965 0.0000000000
15.1893997192 6.8168401718 -0.4845319986 0.0000000000
14.4287004471 7.3391299248 0.0000000000 0.0000000000
15.9886999130 6.2498297691 -0.1998540014 0.0000000000
11.5319004059 5.1705598831 -1.6086599827 0.0000000000
15.1845998764 6.8051099777 -0.0967101976 0.0000000000
11.6715002060 5.9315400124 -1.4102499485 0.0000000000
14.2532997131 5.5657401085 -1.4283599854 0.0000000000
13.9752998352 7.0962200165 -1.0960099697 0.0000000000
14.1590995789 6.3366599083 -1.2663600445 0.0000000000
14.3353004456 8.1800498962 0.4803430140 0.0000000000
16.8141994476 7.5248699188 0.3215430081 0.0000000000
13.5804996490 7.7493200302 -1.0020899773 0.0000000000
16.0835990906 6.2707200050 -1.0053399801 0.0000000000
14.6145000458 7.4111499786 -0.7632970214 0.0000000000
15.4118003845 6.8875799179 -0.8846870065 0.0000000000
13.9774999619 7.9629502296 -0.6553869843 0.0000000000
16.0419998169 6.2416300774 -0.6011090279 0.0000000000
14.4709997177 7.3256897926 -0.3774209917 0.0000000000
13.8081998825 7.8377799988 -0.2771440148 0.0000000000
15.2423000336 6.7767701149 -0.4854629934 0.0000000000
14.4899997711 7.3067297935 0.0000000000 0.0000000000
16.0515003204 6.2098598480 -0.2003660053 0.0000000000
11.5789003372 5.1431598663 -1.6126999855 0.0000000000
13.9777002335 7.9243302345 0.0933858007 0.0000000000
15.2557001114 6.7731599808 -0.0970124975 0.0000000000
11.7206001282 5.9050798416 -1.4136799574 0.0000000000
14.2243995667 5.4972901344 -1.4235299826 0.0000000000
15.5971002579 7.8547501564 0.4063610137 0.0000000000
24.6847000122 9.5349302292 0.3080700040 0.0000000000
14.0284996033 7.0617399216 -1.0982500315 0.0000000000
14.2139997482 6.3017301559 -1.2692899704 0.0000000000
14.3115997314 8.1004199982 0.4785969853 0.0000000000
16.7416000366 7.4223699570 0.3196580112 0.0000000000
13.6386995316 7.7195701599 -1.0043900013 0.0000000000
16.1499996185 6.2317900658 -1.0081299543 0.0000000000
14.6546001434 7.3672699928 -0.7640410066 0.0000000000
15.4467000961 6.8385901451 -0.8853150010 0.0000000000
13.9704999924 7.8944501877 -0.6537590027 0.0000000000
16.0748996735 6.1898999214 -0.6015279889 0.0000000000
14.5201997757 7.2902197838 -0.3780730069 0.0000000000
13.8145999908 7.7777600288 -0.2767249942 0.0000000000
16.1093997955 6.1708998680 -0.2008319944 0.0000000000
11.6077003479 5.1075000763 -1.6142100096 0.0000000000
13.9216003418 7.8284401894 0.0928279012 0.0000000000
15.3086004257 6.7327499390 -0.0971983969 0.0000000000
11.7304000854 5.8587999344 -1.4124000072 0.0000000000
14.1877002716 5.4262700081 -1.4179500341 0.0000000000
15.6244001389 7.8002600670 0.4063610137 0.0000000000
24.8262004852 9.4901199341 0.3094199896 0.0000000000
14.0852003098 7.0287699699 -1.1007599831 0.0000000000
14.2578001022 6.2617001534 -1.2712399960 0.0000000000
14.2875003815 8.0210599899 0.4768519998 0.0000000000
16.8260002136 7.3896098137 0.3207750022 0.0000000000
13.6969003677 7.6894998550 -1.0066900253 0.0000000000
19.9536991119 8.7549295425 0.8877440095 0.0000000000
14.6981000900 7.3249797821 -0.7649719715 0.0000000000
15.4924001694 6.7942600250 -0.8865709901 0.0000000000
13.9421997070 7.8143701553 -0.6511539817 0.0000000000
16.1299991608 6.1465702057 -0.6027839780 0.0000000000
14.5612001419 7.2440800667 -0.3784449995 0.0000000000
15.3479003906 6.6957697868 -0.4873250127 0.0000000000
14.5801000595 7.2249298096 0.0000000000 0.0000000000
16.1793994904 6.1330599785 -0.2014369965 0.0000000000
11.6654996872 5.0843901634 -1.6197700500 0.0000000000
13.8545999527 7.7271900177 0.0922001973 0.0000000000
15.3540000916 6.6888599396 -0.0973379016 0.0000000000
11.8399000168 5.8619399071 -1.4231100082 0.0000000000
15.7159996033 7.7775998116 0.4080350101 0.0000000000
24.9414005280 9.4345397949 0.3104439974 0.0000000000
14.1454000473 6.9972500801 -1.1035499573 0.0000000000
14.3125000000 6.2262001038 -1.2741700411 0.0000000000
14.2980003357 7.9614100456 0.4762699902 0.0000000000
16.8369998932 7.3244500160 0.3204959929 0.0000000000
13.7551002502 7.6591200829 -1.0089900494 0.0000000000
16.2604007721 6.1442899704 -1.0123200417 0.0000000000
14.7449998856 7.2842497826 -0.7660880089 0.0000000000
15.5343999863 6.7480897903 -0.8876180053 0.0000000000
14.6114997864 7.2055897713 -0.3790960014 0.0000000000
15.4006004333 6.6548500061 -0.4882560074 0.0000000000
14.6338996887 7.1880998611 0.0000000000 0.0000000000
16.2532005310 6.0962100029 -0.2020889968 0.0000000000
11.6904001236 5.0467901230 -1.6207799911 0.0000000000
14.0634002686 7.7794599533 0.0934090987 0.0000000000
15.4139995575 6.6510701180 -0.0975703970 0.0000000000
11.8781003952 5.8293299675 -1.4252500534 0.0000000000
14.5347995758 5.4430098534 -1.4488099813 0.0000000000
15.8579998016 7.7790498734 0.4110130072 0.0000000000
25.0116996765 9.3614397049 0.3109099865 0.0000000000
14.1948003769 6.9601302147 -1.1054999828 0.0000000000
14.3597002029 6.1872501373 -1.2764500380 0.0000000000
14.3011999130 7.8979201317 0.4754559994 0.0000000000
15.6063995361 6.7243900299 0.2966209948 0.0000000000
13.8062000275 7.6245698929 -1.0107799768 0.0000000000
16.3192005157 6.1014800072 -1.0146399736 0.0000000000
19.1028003693 9.3583698273 1.2388299704 0.0000000000
14.7918996811 7.2432799339 -0.7672049999 0.0000000000
15.5834999084 6.7048802376 -0.8890830278 0.0000000000
14.0453996658 7.7438697815 -0.6534330249 0.0000000000
16.2549991608 6.0645499229 -0.6058549881 0.0000000000
14.6688995361 7.1703400612 -0.3799340129 0.0000000000
13.9898996353 7.6846599579 -0.2786099911 0.0000000000
15.4531002045 6.6136298180 -0.4891859889 0.0000000000
14.6841001511 7.1492300034 0.0000000000 0.0000000000
16.3192996979 6.0561399460 -0.2026479989 0.0000000000
11.7299003601 5.0153098106 -1.6238100529 0.0000000000
14.1115999222 7.7418599129 0.0935486034 0.0000000000
15.4701995850 6.6113700867 -0.0977796018 0.0000000000
11.9198999405 5.7982702255 -1.4278199673 0.0000000000
14.5237998962 5.3811798096 -1.4458400011 0.0000000000
15.8850002289 7.7236399651 0.4110130072 0.0000000000
14.2370004654 6.9192600250 -1.1068999767 0.0000000000
14.4252004623 6.1558599472 -1.2803499699 0.0000000000
13.8536996841 7.5878300667 -1.0123200417 0.0000000000
14.8387002945 7.2020702362 -0.7683219910 0.0000000000
15.6325998306 6.6613998413 -0.8905490041 0.0000000000
14.0862998962 7.7024598122 -0.6540849805 0.0000000000
14.7225999832 7.1330399513 -0.3806779981 0.0000000000
14.0306997299 7.6434302330 -0.2788890004 0.0000000000
15.4907999039 6.5658898354 -0.4896520078 0.0000000000
14.7413997650 7.1135702133 0.0000000000 0.0000000000
16.4155006409 6.0267100334 -0.2035789937 0.0000000000
11.7910995483 4.9928998947 -1.6298700571 0.0000000000
15.5299997330 6.5729198456 -0.0980120972 0.0000000000
12.0188999176 5.7946300507 -1.4372400045 0.0000000000
14.6359996796 5.3647098541 -1.4551299810 0.0000000000
15.9226999283 7.6733598709 0.4112919867 0.0000000000
20.6222000122 7.5548300743 0.2556850016 0.0000000000
14.2897996902 6.8833699226 -1.1091300249 0.0000000000
14.4944000244 6.1256499290 -1.2845799923 0.0000000000
15.6086997986 6.5965900421 0.2957830131 0.0000000000
13.9082002640 7.5546698570 -1.0143699646 0.0000000000
16.8938999176 6.1822700500 -1.0476700068 0.0000000000
19.2432003021 9.2611398697 1.2437100410 0.0000000000
14.8924999237 7.1640901566 -0.7698109746 0.0000000000
15.6815004349 6.6176700592 -0.8920140266 0.0000000000
14.1518001556 7.6742000580 -0.6558759809 0.0000000000
16.3570003510 5.9728598595 -0.6080890298 0.0000000000
14.7749996185 7.0980401039 -0.3814220130 0.0000000000
14.0748996735 7.6039199829 -0.2792379856 0.0000000000
15.5652999878 6.5334401131 -0.4912810028 0.0000000000
14.8022003174 7.0793299675 0.0000000000 0.0000000000
16.5125999451 5.9937901497 -0.2045110017 0.0000000000
11.8414001465 4.9655199051 -1.6344200373 0.0000000000
14.1195001602 7.6184701920 0.0932463035 0.0000000000
15.5749998093 6.5279498100 -0.0981516019 0.0000000000
12.0820999146 5.7732100487 -1.4423799515 0.0000000000
14.6920995712 5.3271598816 -1.4588500261 0.0000000000
15.2530002594 7.2850999832 0.3933329880 0.0000000000
20.7311992645 7.5127801895 0.2567090094 0.0000000000
14.3606004715 6.8558001518 -1.1127599478 0.0000000000
14.5488004684 6.0888700485 -1.2875100374 0.0000000000
14.2704000473 7.6870498657 0.4717319906 0.0000000000
13.9708995819 7.5225701332 -1.0169199705 0.0000000000
17.0016994476 6.1545300484 -1.0530099869 0.0000000000
14.9427003860 7.1240901947 -0.7711139917 0.0000000000
15.7340002060 6.5752100945 -0.8936889768 0.0000000000
16.5431995392 5.9754800797 -0.6142309904 0.0000000000
14.8249998093 7.0584502220 -0.3820739985 0.0000000000
14.1154003143 7.5622901917 -0.2795180082 0.0000000000
15.6248998642 6.4944200516 -0.4924449921 0.0000000000
14.8629999161 7.0447502136 0.0000000000 0.0000000000
16.6727008820 5.9861302376 -0.2062329948 0.0000000000
14.1742000580 7.5842299461 0.0934322998 0.0000000000
12.1164999008 5.7378101349 -1.4441000223 0.0000000000
14.7292995453 5.2825698853 -1.4607100487 0.0000000000
15.2060003281 7.1975898743 0.3914720118 0.0000000000
25.2793006897 9.0612401962 0.3126330078 0.0000000000
14.4097003937 6.8175702095 -1.1147099733 0.0000000000
14.5993995667 6.0502600670 -1.2901200056 0.0000000000
14.3113002777 7.6447300911 0.4721980095 0.0000000000
14.0240001678 7.4912500381 -1.0189700127 0.0000000000
17.0832004547 6.1166801453 -1.0567300320 0.0000000000
14.9855003357 7.0804300308 -0.7720440030 0.0000000000
15.7974004745 6.5370497704 -0.8959919810 0.0000000000
14.2368001938 7.5921401978 -0.6573410034 0.0000000000
14.8784999847 7.0203099251 -0.3828180134 0.0000000000
14.1524000168 7.5185999870 -0.2797270119 0.0000000000
15.6770000458 6.4520101547 -0.4933750033 0.0000000000
14.9201002121 7.0081300735 0.0000000000 0.0000000000
14.2252998352 7.5478301048 0.0935951024 0.0000000000
15.7349004745 6.4661898613 -0.0988722965 0.0000000000
12.1796998978 5.7157602310 -1.4492399693 0.0000000000
14.8002004623 5.2497601509 -1.4659099579 0.0000000000
15.1513996124 7.1071100235 0.3894250095 0.0000000000
21.5333003998 7.6338200569 0.2659749985 0.0000000000
14.4659004211 6.7824797630 -1.1172200441 0.0000000000
14.6610002518 6.0159101486 -1.2936999798 0.0000000000
14.3626003265 7.6078300476 0.4730120003 0.0000000000
19.4769001007 7.9920101166 0.3674780130 0.0000000000
14.0853004456 7.4609298706 -1.0215300322 0.0000000000
17.1459007263 6.0716700554 -1.0592900515 0.0000000000
15.4806995392 7.2516999245 0.9955729842 0.0000000000
20.4132003784 8.3678798676 0.8988170028 0.0000000000
15.0282001495 7.0365500450 -0.7729750276 0.0000000000
15.8570995331 6.4970102310 -0.8980849981 0.0000000000
14.2950000763 7.5592198372 -0.6588069797 0.0000000000
16.6033000946 5.8664999008 -0.6149290204 0.0000000000
14.9245996475 6.9784998894 -0.3833769858 0.0000000000
14.2138996124 7.4878001213 -0.2804250121 0.0000000000
15.7253999710 6.4078102112 -0.4941900074 0.0000000000
14.9625997543 6.9644498825 0.0000000000 0.0000000000
21.6716003418 7.6147599220 -0.2674190104 0.0000000000
14.2728004456 7.5093002319 0.0937345028 0.0000000000
12.1743001938 5.6614699364 -1.4462399483 0.0000000000
14.8522996902 5.2099299431 -1.4692599773 0.0000000000
15.1870002747 7.0592398643 0.3897039890 0.0000000000
14.5220003128 6.7470698357 -1.1197299957 0.0000000000
14.7115001678 5.9766998291 -1.2963000536 0.0000000000
14.3997001648 7.5632200241 0.4733609855 0.0000000000
14.1465997696 7.4302802086 -1.0240900517 0.0000000000
17.2159996033 6.0289402008 -1.0623199940 0.0000000000
15.0745000839 6.9941301346 -0.7740920186 0.0000000000
15.8982000351 6.4491300583 -0.8991320133 0.0000000000
14.3459997177 7.5222601891 -0.6599460244 0.0000000000
19.5144996643 6.8185701370 -0.7218610048 0.0000000000
14.9670000076 6.9347600937 -0.3838419914 0.0000000000
14.2706003189 7.4572901726 -0.2810539901 0.0000000000
15.7725000381 6.3660998344 -0.4950050116 0.0000000000
15.0109996796 6.9265198708 0.0000000000 0.0000000000
22.1123008728 7.6873297691 -0.2725409865 0.0000000000
14.3154001236 7.4711899757 0.0938507989 0.0000000000
15.6226997375 6.2961401939 -0.0978958979 0.0000000000
12.2508001328 5.6477098465 -1.4530899525 0.0000000000
14.8996000290 5.1711001396 -1.4722299576 0.0000000000
15.2466001511 7.0255699158 0.3906350136 0.0000000000
25.4580993652 8.8305997849 0.3137040138 0.0000000000
14.5733003616 6.7122302055 -1.1219600439 0.0000000000
14.7681999207 5.9427599907 -1.2995500565 0.0000000000
14.4388999939 7.5228199959 0.4738270044 0.0000000000
25.3094997406 10.1794996262 0.4761709869 0.0000000000
14.1971998215 7.3937602043 -1.0258799791 0.0000000000
17.2849006653 5.9888200760 -1.0653400421 0.0000000000
20.4437007904 8.2183103561 0.8976770043 0.0000000000
15.1302003860 6.9591298103 -0.7757670283 0.0000000000
15.9603004456 6.4127497673 -0.9014340043 0.0000000000
15.0263004303 6.9017801285 -0.3847720027 0.0000000000
14.3248996735 7.4221501350 -0.2816120088 0.0000000000
15.8392000198 6.3288102150 -0.4964010119 0.0000000000
15.0714998245 6.8907098770 0.0000000000 0.0000000000
14.3662996292 7.4340400696 0.0940134972 0.0000000000
15.8451995850 6.3215999603 -0.0991512015 0.0000000000
12.2741003036 5.6065602303 -1.4535200596 0.0000000000
14.9401998520 5.1268100739 -1.4744600058 0.0000000000
25.3941993713 8.7092399597 0.3125399947 0.0000000000
14.6330003738 6.6778898239 -1.1247500181 0.0000000000
14.8221998215 5.9044599533 -1.3024799824 0.0000000000
14.4863996506 7.4833798409 0.4745250046 0.0000000000
14.2536001205 7.3631300926 -1.0281800032 0.0000000000
17.3472995758 5.9426798820 -1.0678999424 0.0000000000
20.3943004608 8.1158599854 0.8942580223 0.0000000000
15.1835002899 6.9195299149 -0.7772560120 0.0000000000
16.0233993530 6.3732399940 -0.9037370086 0.0000000000
14.4821996689 7.4684000015 -0.6638540030 0.0000000000
19.6550006866 6.7179098129 -0.7253509760 0.0000000000
15.0951004028 6.8665299416 -0.3858889937 0.0000000000
15.8908996582 6.2852501869 -0.4973320067 0.0000000000
15.1209001541 6.8496198654 0.0000000000 0.0000000000
21.5417995453 7.3166599274 -0.2648580074 0.0000000000
14.4205999374 7.3984498978 0.0941995010 0.0000000000
16.0680999756 6.3455901146 -0.1004069969 0.0000000000
12.2936000824 5.5636801720 -1.4535200596 0.0000000000
14.9843997955 5.0835900307 -1.4770699739 0.0000000000
16.6142997742 7.5155901909 0.4243200123 0.0000000000
14.6816997528 6.6382799149 -1.1267100573 0.0000000000
14.8724002838 5.8643798828 -1.3050899506 0.0000000000
14.5302000046 7.4418802261 0.4751070142 0.0000000000
25.7837009430 10.1668996811 0.4837810099 0.0000000000
14.3076000214 7.3278899193 -1.0302300453 0.0000000000
17.4132995605 5.8974599838 -1.0706900358 0.0000000000
19.6879005432 8.8935403824 1.2581299543 0.0000000000
15.2404003143 6.8812899590 -0.7789310217 0.0000000000
16.0566997528 6.3216600418 -0.9043650031 0.0000000000
19.7465000153 6.6722898483 -0.7278640270 0.0000000000
15.1434001923 6.8279399872 -0.3865399957 0.0000000000
14.4263000488 7.3473801613 -0.2825889885 0.0000000000
15.9426002502 6.2413997650 -0.4982630014 0.0000000000
15.1775999069 6.8115301132 0.0000000000 0.0000000000
21.5053005219 7.2248001099 -0.2641130090 0.0000000000
14.4748001099 7.3625798225 0.0943854973 0.0000000000
12.3564996719 5.5402598381 -1.4586600065 0.0000000000
15.0586996078 5.0502500534 -1.4826400280 0.0000000000
15.3740997314 6.8900599480 0.3920300007 0.0000000000
14.7520999908 6.6081900597 -1.1303299665 0.0000000000
14.9187002182 5.8225798607 -1.3073600531 0.0000000000
14.5846004486 7.4056000710 0.4760380089 0.0000000000
26.1655006409 10.2119998932 0.4902729988 0.0000000000
14.3687000275 7.2959699631 -1.0327899456 0.0000000000
17.4792003632 5.8518500328 -1.0734800100 0.0000000000
20.4354991913 7.9674801826 0.8936060071 0.0000000000
15.2897996902 6.8394699097 -0.7802339792 0.0000000000
16.0526008606 6.2554202080 -0.9028999805 0.0000000000
14.5552997589 7.3779602051 -0.6648309827 0.0000000000
19.8379001617 6.6261200905 -0.7303770185 0.0000000000
15.1901998520 6.7821798325 -0.3870989978 0.0000000000
14.4731998444 7.3077898026 -0.2830080092 0.0000000000
15.9977998734 6.1987099648 -0.4993099868 0.0000000000
21.5380001068 7.1522102356 -0.2642059922 0.0000000000
12.3756999969 5.4970898628 -1.4586600065 0.0000000000
15.1253004074 5.0139398575 -1.4874800444 0.0000000000
25.8978996277 8.5799503326 0.3176150024 0.0000000000
14.7968997955 6.5663700104 -1.1320099831 0.0000000000
14.9762001038 5.7848300934 -1.3106199503 0.0000000000
14.6353998184 7.3672299385 0.4768519998 0.0000000000
26.2383003235 10.1350002289 0.4909709990 0.0000000000
14.4261999130 7.2619299889 -1.0350899696 0.0000000000
17.5487995148 5.8071098328 -1.0765000582 0.0000000000
19.8115005493 8.7833900452 1.2620799541 0.0000000000
15.3428001404 6.7990098000 -0.7817230225 0.0000000000
16.1004009247 6.2094101906 -0.9043650031 0.0000000000
14.6096000671 7.3414602280 -0.6661339998 0.0000000000
19.9102993011 6.5731201172 -0.7321910262 0.0000000000
15.2393999100 6.7404398918 -0.3877499998 0.0000000000
14.5236997604 7.2697601318 -0.2834970057 0.0000000000
16.0380001068 6.1499900818 -0.4998919964 0.0000000000
15.2980003357 6.7376499176 0.0000000000 0.0000000000
21.6007995605 7.0894598961 -0.2646720111 0.0000000000
14.5760002136 7.2863798141 0.0947109014 0.0000000000
16.1261997223 6.1741199493 -0.1003599986 0.0000000000
12.4567003250 5.4810900688 -1.4659399986 0.0000000000
15.1691999435 4.9697999954 -1.4900799990 0.0000000000
26.2014007568 8.5791101456 0.3209680021 0.0000000000
14.8526000977 6.5291299820 -1.1345200539 0.0000000000
15.0371999741 5.7481799126 -1.3142000437 0.0000000000
14.6824998856 7.3268098831 0.4775500000 0.0000000000
26.3145999908 10.0591001511 0.4917390049 0.0000000000
14.4835996628 7.2275700569 -1.0373899937 0.0000000000
17.6221008301 5.7631998062 -1.0797599554 0.0000000000
20.9013996124 7.9814600945 0.9115170240 0.0000000000
15.3993997574 6.7598600388 -0.7833979726 0.0000000000
14.6637001038 7.3046798706 -0.6674370170 0.0000000000
19.9976997375 6.5246601105 -0.7345650196 0.0000000000
15.2994003296 6.7032499313 -0.3886809945 0.0000000000
14.5740995407 7.2314600945 -0.2839860022 0.0000000000
16.0855007172 6.1038999557 -0.5007060170 0.0000000000
15.4863996506 6.7561898232 0.0000000000 0.0000000000
21.9906997681 7.1324801445 -0.2691420019 0.0000000000
14.6300001144 7.2496700287 0.0948968977 0.0000000000
16.2299003601 6.1489701271 -0.1008720025 0.0000000000
12.4793996811 5.4391598701 -1.4663699865 0.0000000000
15.2243995667 4.9290800095 -1.4938000441 0.0000000000
15.4527997971 6.7318801880 0.3922170103 0.0000000000
22.1364994049 7.1626801491 0.2708649933 0.0000000000
14.9155998230 6.4947700500 -1.1375900507 0.0000000000
15.0981998444 5.7111701965 -1.3177800179 0.0000000000
14.7365999222 7.2897000313 0.4784809947 0.0000000000
21.0527000427 7.9635601044 0.3928889930 0.0000000000
14.5302000046 7.1875901222 -1.0389300585 0.0000000000
17.6839008331 5.7151598930 -1.0823199749 0.0000000000
15.4412002563 6.7140297890 -0.7843289971 0.0000000000
16.2292995453 6.1293201447 -0.9091799855 0.0000000000
14.7105998993 7.2640600204 -0.6684139967 0.0000000000
20.0888004303 6.4769001007 -0.7370769978 0.0000000000
15.3374004364 6.6561698914 -0.3890529871 0.0000000000
14.6243000031 7.1929001808 -0.2844739854 0.0000000000
16.1366996765 6.0589599609 -0.5016369820 0.0000000000
22.2478008270 7.1301298141 -0.2719820142 0.0000000000
14.6767997742 7.2091398239 0.0950364023 0.0000000000
16.4197998047 6.1554598808 -0.1019179970 0.0000000000
12.5384998322 5.4129099846 -1.4710899591 0.0000000000
15.2756004333 4.8868298531 -1.4971400499 0.0000000000
15.5092000961 6.6921601295 0.3930540085 0.0000000000
14.9785003662 6.4600501060 -1.1406600475 0.0000000000
15.1478996277 5.6696100235 -1.3203799725 0.0000000000
14.7906999588 7.2522897720 0.4794119895 0.0000000000
14.5874996185 7.1526398659 -1.0412299633 0.0000000000
17.7493991852 5.6679701805 -1.0851099491 0.0000000000
21.0202007294 7.8591399193 0.9142860174 0.0000000000
15.4975996017 6.6743202209 -0.7860040069 0.0000000000
16.2842998505 6.0852098465 -0.9110640287 0.0000000000
14.7609996796 7.2249698639 -0.6695529819 0.0000000000
20.1646003723 6.4237198830 -0.7390319705 0.0000000000
15.3924999237 6.6194901466 -0.3898899853 0.0000000000
14.6816997528 7.1575798988 -0.2851029932 0.0000000000
16.1914997101 6.0151200294 -0.5026839972 0.0000000000
22.3157005310 7.0618200302 -0.2724939883 0.0000000000
12.4988002777 5.3440899849 -1.4642299414 0.0000000000
15.3344001770 4.8466801643 -1.5012300014 0.0000000000
26.6215991974 8.4090795517 0.3250190020 0.0000000000
15.0412998199 6.4249701500 -1.1437300444 0.0000000000
15.1975002289 5.6277799606 -1.3229899406 0.0000000000
14.8410997391 7.2128500938 0.4802269936 0.0000000000
26.4165000916 9.7769899368 0.4916689992 0.0000000000
14.6531000137 7.1183099747 -1.0440399647 0.0000000000
17.8223991394 5.6227998734 -1.0883599520 0.0000000000
15.5574998856 6.6358599663 -0.7878649831 0.0000000000
16.3391990662 6.0408000946 -0.9129480124 0.0000000000
14.8149003983 7.1873598099 -0.6708559990 0.0000000000
20.2402992249 6.3701000214 -0.7409859896 0.0000000000
15.4523000717 6.5813899040 -0.3908210099 0.0000000000
14.7354001999 7.1202101707 -0.2856610119 0.0000000000
16.2649002075 5.9778800011 -0.5043129921 0.0000000000
22.3631000519 6.9910402298 -0.2727740109 0.0000000000
14.7952003479 7.1395301819 0.0954781026 0.0000000000
20.7807998657 7.6252598763 -0.1286530048 0.0000000000
12.5943002701 5.3330001831 -1.4732300043 0.0000000000
15.3929996490 4.8061800003 -1.5053199530 0.0000000000
22.3400993347 6.9709901810 0.2724480033 0.0000000000
15.0966997147 6.3864102364 -1.1462399960 0.0000000000
15.2469997406 5.5856599808 -1.3255900145 0.0000000000
14.8878002167 7.1714100838 0.4809249938 0.0000000000
26.5727005005 9.7347402573 0.4939729869 0.0000000000
14.7089996338 7.0852699280 -1.0463500023 0.0000000000
17.9029006958 5.5795698166 -1.0920799971 0.0000000000
20.1420001984 8.5124702454 1.2734800577 0.0000000000
15.6136999130 6.5954999924 -0.7895399928 0.0000000000
14.8614997864 7.1459898949 -0.6718329787 0.0000000000
20.3234996796 6.3183999062 -0.7432199717 0.0000000000
15.5120000839 6.5429501534 -0.3917509913 0.0000000000
14.7818002701 7.0790901184 -0.2860800028 0.0000000000
16.3269996643 5.9361000061 -0.5055930018 0.0000000000
22.4015007019 6.9215598106 -0.2729600072 0.0000000000
14.9282999039 7.1396098137 0.0961756036 0.0000000000
20.7583999634 7.5349302292 -0.1283500046 0.0000000000
12.6091995239 5.2874598503 -1.4728000164 0.0000000000
15.4400997162 4.7618098259 -1.5082999468 0.0000000000
20.0925998688 8.4214200974 0.5069500208 0.0000000000
15.1556997299 6.3491001129 -1.1490299702 0.0000000000
15.3114004135 5.5487098694 -1.3294999599 0.0000000000
14.9343996048 7.1297402382 0.4816229939 0.0000000000
14.7659997940 7.0493597984 -1.0486500263 0.0000000000
17.9757003784 5.5334901810 -1.0953400135 0.0000000000
21.2516994476 7.6929998398 0.9207990170 0.0000000000
15.6661996841 6.5532999039 -0.7910289764 0.0000000000
16.4447994232 5.9496898651 -0.9165070057 0.0000000000
14.9117002487 7.1061100960 -0.6729729772 0.0000000000
20.4141998291 6.2685399055 -0.7457320094 0.0000000000
15.5495004654 6.4949297905 -0.3921230137 0.0000000000
14.8268995285 7.0403299332 -0.2864989936 0.0000000000
16.4067993164 5.9035801888 -0.5074549913 0.0000000000
16.1105003357 6.6995601654 0.0000000000 0.0000000000
22.4932003021 6.8682699203 -0.2737979889 0.0000000000
15.1036996841 7.1620497704 0.0971520022 0.0000000000
23.2150993347 8.3396396637 -0.1433680058 0.0000000000
12.6339998245 5.2486701012 -1.4736599922 0.0000000000
15.5016002655 4.7245202065 -1.5127600431 0.0000000000
20.0170001984 8.3118000031 0.5043449998 0.0000000000
26.6417007446 8.1146898270 0.3242270052 0.0000000000
15.2172002792 6.3156299591 -1.1520999670 0.0000000000
15.3784999847 5.5153999329 -1.3337299824 0.0000000000
14.9976997375 7.0989899635 0.4829030037 0.0000000000
14.8218002319 7.0157299042 -1.0509500504 0.0000000000
18.0321998596 5.4854698181 -1.0976599455 0.0000000000
20.2695999146 8.4042301178 1.2778999805 0.0000000000
15.7173004150 6.5135498047 -0.7925180197 0.0000000000
16.5923004150 5.9408998489 -0.9236249924 0.0000000000
14.9713001251 7.0736899376 -0.6746010184 0.0000000000
20.4846000671 6.2158999443 -0.7475469708 0.0000000000
15.6115999222 6.4601497650 -0.3931469917 0.0000000000
14.8838996887 7.0038499832 -0.2871269882 0.0000000000
16.5214996338 5.8797898293 -0.5103639960 0.0000000000
16.2558994293 6.6935400963 0.0000000000 0.0000000000
22.5743999481 6.8070302010 -0.2744970024 0.0000000000
15.1068000793 7.0990800858 0.0970124975 0.0000000000
23.3269996643 8.2880201340 -0.1438799948 0.0000000000
12.6999998093 5.2242097855 -1.4792200327 0.0000000000
15.5599002838 4.6830000877 -1.5168499947 0.0000000000
19.7684993744 8.1278295517 0.4973660111 0.0000000000
22.5715007782 6.7889599800 0.2744039893 0.0000000000
15.2798004150 6.2791600227 -1.1551699638 0.0000000000
15.4239997864 5.4710102081 -1.3359999657 0.0000000000
15.0514001846 7.0601801872 0.4838339984 0.0000000000
14.8762998581 6.9749097824 -1.0529999733 0.0000000000
18.1009006500 5.4374299049 -1.1006900072 0.0000000000
15.7694997787 6.4707798958 -0.7940070033 0.0000000000
15.0248003006 7.0349497795 -0.6759039760 0.0000000000
20.5750999451 6.1650099754 -0.7500600219 0.0000000000
15.6674003601 6.4192600250 -0.3939850032 0.0000000000
14.9372997284 6.9653801918 -0.2876850069 0.0000000000
16.6513004303 5.8605799675 -0.5137389898 0.0000000000
15.8680000305 6.4691400528 0.0000000000 0.0000000000
22.6298999786 6.7333698273 -0.2748689950 0.0000000000
15.0299997330 6.9990200996 0.0963615030 0.0000000000
23.4160995483 8.2277498245 -0.1442520022 0.0000000000
12.7807998657 5.2053499222 -1.4865100384 0.0000000000
15.6219997406 4.6422700882 -1.5213099718 0.0000000000
26.0599002838 10.6083002090 0.6547179818 0.0000000000
15.3386001587 6.2408199310 -1.1579600573 0.0000000000
15.4843997955 5.4316601753 -1.3395800591 0.0000000000
15.1049003601 7.0210800171 0.4847649932 0.0000000000
27.0326995850 9.4826097488 0.5000460148 0.0000000000
14.9320001602 6.9406900406 -1.0552999973 0.0000000000
18.1772003174 5.3912401199 -1.1041799784 0.0000000000
15.8475999832 6.4382500648 -0.7967990041 0.0000000000
15.0747003555 6.9942297935 -0.6770430207 0.0000000000
20.6655006409 6.1135601997 -0.7525730133 0.0000000000
15.7314996719 6.3783202171 -0.3950079978 0.0000000000
14.9977998734 6.9299697876 -0.2883839905 0.0000000000
16.7887001038 5.8431601524 -0.5173460245 0.0000000000
22.3577995300 6.5675301552 -0.2712840140 0.0000000000
15.0979003906 6.9666299820 0.0966404974 0.0000000000
23.5090007782 8.1682796478 -0.1446470022 0.0000000000
12.8542003632 5.1830101013 -1.4929300547 0.0000000000
15.6724996567 4.5978097916 -1.5246499777 0.0000000000
15.3861999512 6.1976799965 -1.1599099636 0.0000000000
15.5370998383 5.3893299103 -1.3425099850 0.0000000000
15.1583995819 6.9816899300 0.4856959879 0.0000000000
21.6396999359 7.5061001778 0.3998000026 0.0000000000
15.0067996979 6.9119000435 -1.0588799715 0.0000000000
18.2495994568 5.3434700966 -1.1074299812 0.0000000000
15.9033002853 6.3963098526 -0.7984740138 0.0000000000
17.9106006622 6.2020797729 -0.9933360219 0.0000000000
15.1280002594 6.9549298286 -0.6783459783 0.0000000000
20.7366008759 6.0559601784 -0.7543870211 0.0000000000
15.7860002518 6.3395299911 -0.3958460093 0.0000000000
15.0474004745 6.8892297745 -0.2888720036 0.0000000000
15.1512002945 6.9271898270 0.0968265012 0.0000000000
12.8870000839 5.1440100670 -1.4946500063 0.0000000000
15.7229003906 4.5530400276 -1.5279999971 0.0000000000
19.9342994690 7.9529700279 0.4994130135 0.0000000000
15.4559001923 6.1631398201 -1.1635400057 0.0000000000
15.6010999680 5.3505802155 -1.3464200497 0.0000000000
15.2153997421 6.9436798096 0.4867430031 0.0000000000
15.0563001633 6.8710799217 -1.0606700182 0.0000000000
18.3026008606 5.2897100449 -1.1095299721 0.0000000000
15.9589004517 6.3540601730 -0.8001490235 0.0000000000
15.1777000427 6.9136700630 -0.6794859767 0.0000000000
20.8113994598 5.9990401268 -0.7563419938 0.0000000000
15.8425998688 6.2949199677 -0.3966830075 0.0000000000
15.1113996506 6.8548398018 -0.2896400094 0.0000000000
20.7050991058 7.0445799828 -0.6365010142 0.0000000000
15.8977003098 6.2879099846 0.0000000000 0.0000000000
22.4211997986 6.4207000732 -0.2715170085 0.0000000000
16.1664009094 7.3231902122 0.1031500027 0.0000000000
21.5391006470 7.3157401085 -0.1322090030 0.0000000000
12.9160003662 5.1033701897 -1.4959299564 0.0000000000
15.7846002579 4.5112600327 -1.5324599743 0.0000000000
26.5601005554 7.5858798027 0.3215729892 0.0000000000
15.5069999695 6.1208801270 -1.1657700539 0.0000000000
15.6611995697 5.3101701736 -1.3500000238 0.0000000000
15.2760000229 6.9070000648 0.4879060090 0.0000000000
15.1128997803 6.8332800865 -1.0629700422 0.0000000000
18.3824005127 5.2433099747 -1.1132500172 0.0000000000
20.6100997925 8.1268301010 1.2902200222 0.0000000000
16.0517005920 6.3261499405 -0.8036860228 0.0000000000
18.0291004181 6.1025099754 -0.9975230098 0.0000000000
15.2418003082 6.8787398338 -0.6812769771 0.0000000000
20.9090995789 5.9482297897 -0.7591339946 0.0000000000
15.1462001801 6.8069601059 -0.2898499966 0.0000000000
20.7940006256 6.9939298630 -0.6384789944 0.0000000000
22.3318004608 6.3108601570 -0.2701660097 0.0000000000
16.1917991638 7.2667098045 0.1031500027 0.0000000000
21.5380001068 7.2315998077 -0.1320469975 0.0000000000
12.9930000305 5.0814299583 -1.5027899742 0.0000000000
15.8463001251 4.4691100121 -1.5369199514 0.0000000000
27.0249004364 10.5636997223 0.6751890182 0.0000000000
15.5691003799 6.0826802254 -1.1688400507 0.0000000000
15.7137002945 5.2668800354 -1.3529299498 0.0000000000
26.6959991455 8.9479198456 0.4914599955 0.0000000000
15.1731004715 6.7968001366 -1.0655299425 0.0000000000
18.4582996368 5.1953401566 -1.1167299747 0.0000000000
16.0214996338 6.2497601509 -0.8010799885 0.0000000000
15.2948999405 6.8385400772 -0.6825799942 0.0000000000
20.9874992371 5.8914198875 -0.7612280250 0.0000000000
15.9457998276 6.2073798180 -0.3981719911 0.0000000000
15.1967000961 6.7723698616 -0.2904079854 0.0000000000
20.8575992584 6.9424600601 -0.6397590041 0.0000000000
16.0545997620 6.2271800041 0.0000000000 0.0000000000
22.3246002197 6.2331399918 -0.2698400021 0.0000000000
21.5872001648 7.1727299690 -0.1322090030 0.0000000000
13.0200004578 5.0448999405 -1.5040700436 0.0000000000
15.9062995911 4.4321298599 -1.5413800478 0.0000000000
26.4053993225 10.2260999680 0.6589050293 0.0000000000
22.5023002625 6.2658300400 0.2719359994 0.0000000000
15.6178998947 6.0452599525 -1.1710699797 0.0000000000
15.7603998184 5.2275300026 -1.3555300236 0.0000000000
15.4858999252 6.8785700798 0.4931429923 0.0000000000
27.6919994354 9.1850700378 0.5092610121 0.0000000000
15.2271995544 6.7636899948 -1.0678399801 0.0000000000
18.5207004547 5.1501698494 -1.1195199490 0.0000000000
20.7602996826 8.0274095535 1.2962700129 0.0000000000
21.8262996674 7.2310299873 0.9367560148 0.0000000000
16.0597000122 6.2065901756 -0.8020099998 0.0000000000
18.2056999207 6.0279998779 -1.0050599575 0.0000000000
21.0559997559 5.8393402100 -0.7630429864 0.0000000000
15.9912996292 6.1673197746 -0.3988229930 0.0000000000
15.2482004166 6.7252697945 -0.2908970118 0.0000000000
16.7768001556 6.4333000183 0.0000000000 0.0000000000
22.4178009033 6.1664700508 -0.2706780136 0.0000000000
21.6222000122 7.0922799110 -0.1322560012 0.0000000000
13.1210002899 5.0261697769 -1.5134999752 0.0000000000
15.9616003036 4.3815698624 -1.5450999737 0.0000000000
27.1727008820 10.4034004211 0.6770499945 0.0000000000
22.4915008545 6.1698598862 0.2715170085 0.0000000000
15.6782999039 5.9995098114 -1.1738599539 0.0000000000
15.8183002472 5.1793799400 -1.3587900400 0.0000000000
19.5676994324 8.6018600464 0.6220719814 0.0000000000
21.9992008209 7.2032098770 0.4040580094 0.0000000000
15.3006000519 6.7260499001 -1.0711599588 0.0000000000
18.5904006958 5.0927300453 -1.1225500107 0.0000000000
16.1319999695 6.1634202003 -0.8044300079 0.0000000000
18.2628993988 5.9692201614 -1.0069400072 0.0000000000
15.3935003281 6.7540798187 -0.6848589778 0.0000000000
21.1746997833 5.7847900391 -0.7665330172 0.0000000000
16.0585994720 6.1257700920 -0.3999400139 0.0000000000
15.3192996979 6.6928200722 -0.2918039858 0.0000000000
21.0105991364 6.8227200508 -0.6429010034 0.0000000000
21.0102005005 7.9726300240 0.0000000000 0.0000000000
22.4827003479 6.0957698822 -0.2711910009 0.0000000000
21.7266998291 7.0426602364 -0.1327439994 0.0000000000
13.1645002365 4.9902100563 -1.5164899826 0.0000000000
16.0151996613 4.3362298012 -1.5488200188 0.0000000000
22.4782009125 6.0819101334 0.2710979879 0.0000000000
15.7327003479 5.9574599266 -1.1763700247 0.0000000000
15.8780002594 5.1376299858 -1.3623700142 0.0000000000
27.4176998138 8.8662395477 0.5029780269 0.0000000000
15.3543996811 6.6826701164 -1.0732100010 0.0000000000
18.6774997711 5.0465598106 -1.1267299652 0.0000000000
21.9510002136 7.0942001343 0.9398499727 0.0000000000
16.2056999207 6.1268601418 -0.8070359826 0.0000000000
18.3330001831 5.9214000702 -1.0096700191 0.0000000000
15.4427003860 6.7114500999 -0.6859989762 0.0000000000
21.2448997498 5.7243599892 -0.7683470249 0.0000000000
16.1061000824 6.0795698166 -0.4005909860 0.0000000000
15.3682003021 6.6504201889 -0.2922930121 0.0000000000
21.1105003357 6.7737698555 -0.6452280283 0.0000000000
20.8805999756 7.8401899338 0.0000000000 0.0000000000
22.5193004608 6.0213899612 -0.2713769972 0.0000000000
24.1891002655 7.7476401329 -0.1476230025 0.0000000000
13.2116003036 4.9553999901 -1.5199199915 0.0000000000
16.0841007233 4.2946901321 -1.5540200472 0.0000000000
26.6567001343 9.9930696487 0.6624410152 0.0000000000
22.4953994751 6.0023798943 0.2710509896 0.0000000000
15.7870998383 5.9151101112 -1.1788799763 0.0000000000
15.9376001358 5.0955300331 -1.3659499884 0.0000000000
19.5062007904 8.4127902985 0.6182320118 0.0000000000
27.9078998566 8.9226398468 0.5114250183 0.0000000000
15.4167995453 6.6491098404 -1.0760200024 0.0000000000
18.7490005493 4.9957199097 -1.1299899817 0.0000000000
16.2681999207 6.0856499672 -0.8090829849 0.0000000000
18.4067993164 5.8743700981 -1.0125999451 0.0000000000
15.4989995956 6.6717300415 -0.6874650121 0.0000000000
21.3381996155 5.6696701050 -0.7710000277 0.0000000000
16.1609001160 6.0359001160 -0.4014289975 0.0000000000
15.4147996902 6.6131401062 -0.2927820086 0.0000000000
21.1926002502 6.7267699242 -0.6470900178 0.0000000000
23.5820007324 8.7700700760 0.0000000000 0.0000000000
22.5139007568 5.9484200478 -0.2710979879 0.0000000000
24.2896003723 7.6957798004 -0.1480879933 0.0000000000
13.2307996750 4.9152498245 -1.5203499794 0.0000000000
16.1438007355 4.2563199997 -1.5584900379 0.0000000000
27.4528007507 10.1932001114 0.6814240217 0.0000000000
22.3672008514 5.8929600716 0.2692820132 0.0000000000
15.8505001068 5.8821401596 -1.1822299957 0.0000000000
15.9953002930 5.0586600304 -1.3695299625 0.0000000000
19.6832008362 8.4159202576 0.6230030060 0.0000000000
22.2196998596 7.0271801949 0.4067809880 0.0000000000
15.4743003845 6.6163301468 -1.0785800219 0.0000000000
18.8108997345 4.9489898682 -1.1327799559 0.0000000000
18.4822998047 5.8345499039 -1.0157400370 0.0000000000
15.5530004501 6.6371197701 -0.6889299750 0.0000000000
21.4060993195 5.6157898903 -0.7728139758 0.0000000000
16.2061004639 5.9948101044 -0.4020799994 0.0000000000
15.4672002792 6.5718097687 -0.2933399975 0.0000000000
21.2350997925 6.6587300301 -0.6476719975 0.0000000000
20.9171009064 7.6960101128 0.0000000000 0.0000000000
22.5692996979 5.8788700104 -0.2715170085 0.0000000000
24.3736000061 7.6288700104 -0.1484359950 0.0000000000
13.2479000092 4.8690400124 -1.5203499794 0.0000000000
16.1970996857 4.2099599838 -1.5621999502 0.0000000000
27.3980998993 10.0642995834 0.6791909933 0.0000000000
22.5191993713 5.8490300179 0.2708649933 0.0000000000
15.9159002304 5.8432798386 -1.1855800152 0.0000000000
16.0585994720 5.0170598030 -1.3734300137 0.0000000000
19.9813003540 8.4609699249 0.6314970255 0.0000000000
15.5193996429 6.5716199875 -1.0801099539 0.0000000000
18.8899002075 4.8993401527 -1.1365000010 0.0000000000
21.1072006226 7.7408599854 1.3092900515 0.0000000000
22.1704006195 6.9180598259 0.9462000132 0.0000000000
16.3456993103 5.9913702011 -0.8109440207 0.0000000000
18.5445003510 5.7830801010 -1.0180399418 0.0000000000
21.4836997986 5.5560498238 -0.7749080062 0.0000000000
16.2719993591 5.9546999931 -0.4031969905 0.0000000000
15.5132999420 6.5243802071 -0.2937589884 0.0000000000
21.3509998322 6.6092300415 -0.6504639983 0.0000000000
20.8437004089 7.5823698044 0.0000000000 0.0000000000
22.6333007812 5.8070402145 -0.2720290124 0.0000000000
24.4242992401 7.5465698242 -0.1485760063 0.0000000000
13.3179998398 4.8394598961 -1.5263500214 0.0000000000
16.2586994171 4.1624197960 -1.5666699409 0.0000000000
21.2968006134 7.7345800400 0.5272359848 0.0000000000
22.6644992828 5.7981801033 0.2723549902 0.0000000000
15.9672002792 5.7958002090 -1.1878099442 0.0000000000
16.1226005554 4.9722700119 -1.3773399591 0.0000000000
20.0638008118 8.4093103409 0.6331260204 0.0000000000
28.5424995422 8.7971801758 0.5213379860 0.0000000000
15.6034002304 6.5366601944 -1.0842100382 0.0000000000
18.9657993317 4.8449001312 -1.1399899721 0.0000000000
16.4088001251 5.9464001656 -0.8129919767 0.0000000000
18.6266994476 5.7338800430 -1.0213899612 0.0000000000
15.6554002762 6.5487999916 -0.6913719773 0.0000000000
21.5774993896 5.4960198402 -0.7775610089 0.0000000000
16.3614006042 5.9195098877 -0.4048720002 0.0000000000
15.5754995346 6.4898200035 -0.2945269942 0.0000000000
21.4797992706 6.5711498260 -0.6537219882 0.0000000000
20.8799991608 7.5172700882 0.0000000000 0.0000000000
22.5953006744 5.7132902145 -0.2713299990 0.0000000000
16.2679004669 6.7683300972 0.1024060026 0.0000000000
24.5753993988 7.5040798187 -0.1493429989 0.0000000000
13.4274997711 4.8289198875 -1.5370600224 0.0000000000
16.3110008240 4.1182298660 -1.5703799725 0.0000000000
22.6098995209 5.7044000626 0.2714700103 0.0000000000
16.0238990784 5.7563099861 -1.1906000376 0.0000000000
16.1809005737 4.9315600395 -1.3809200525 0.0000000000
20.1690998077 8.3749303818 0.6355699897 0.0000000000
22.4412994385 6.8395800591 0.4095030129 0.0000000000
15.6497001648 6.4983201027 -1.0859999657 0.0000000000
19.0282001495 4.7936801910 -1.1427799463 0.0000000000
21.2247009277 7.6162500381 1.3132400513 0.0000000000
16.4698009491 5.9067897797 -0.8150389791 0.0000000000
18.7028999329 5.6895198822 -1.0245300531 0.0000000000
15.7139997482 6.5121498108 -0.6930009723 0.0000000000
21.6653995514 5.4419698715 -0.7800740004 0.0000000000
16.4571990967 5.8893098831 -0.4067330062 0.0000000000
15.6386995316 6.4521899223 -0.2952950001 0.0000000000
21.4643993378 6.4845600128 -0.6525589824 0.0000000000
23.9470996857 8.5271797180 0.0000000000 0.0000000000
22.7665004730 5.6721000671 -0.2731460035 0.0000000000
15.7551002502 6.4905800819 0.0990350023 0.0000000000
22.6023998260 6.8154602051 -0.1372079998 0.0000000000
13.4855003357 4.7966799736 -1.5417699814 0.0000000000
16.3794002533 4.0747299194 -1.5755900145 0.0000000000
27.3549995422 9.7245597839 0.6755620241 0.0000000000
22.7966003418 5.6669301987 0.2734720111 0.0000000000
16.0890007019 5.7163701057 -1.1939500570 0.0000000000
16.2399997711 4.8876900673 -1.3845000267 0.0000000000
15.7166004181 6.4618701935 -1.0890699625 0.0000000000
19.1145992279 4.7445502281 -1.1469700336 0.0000000000
22.4176998138 6.7384400368 0.9536899924 0.0000000000
18.7150001526 5.6219000816 -1.0241099596 0.0000000000
15.7624998093 6.4678702354 -0.6941409707 0.0000000000
21.7462997437 5.3816699982 -0.7823070288 0.0000000000
16.5671997070 5.8667402267 -0.4089660048 0.0000000000
15.6955995560 6.4084300995 -0.2959229946 0.0000000000
21.6450996399 6.4526801109 -0.6573299766 0.0000000000
24.0196990967 8.4539604187 0.0000000000 0.0000000000
22.7978000641 5.5954499245 -0.2732860148 0.0000000000
16.1566009521 6.5868201256 0.1014060006 0.0000000000
24.7511997223 7.3645300865 -0.1500869989 0.0000000000
13.4729995728 4.7366700172 -1.5383399725 0.0000000000
16.4328994751 4.0241398811 -1.5793100595 0.0000000000
28.0431995392 9.8535699844 0.6916599870 0.0000000000
23.0153999329 5.6318202019 0.2758469880 0.0000000000
16.1550006866 5.6732301712 -1.1972999573 0.0000000000
16.2959995270 4.8394799232 -1.3877500296 0.0000000000
20.5174007416 8.3479299545 0.6446459889 0.0000000000
22.5778007507 6.7050099373 0.4111090004 0.0000000000
15.7734003067 6.4177598953 -1.0913699865 0.0000000000
19.1861991882 4.6877298355 -1.1502200365 0.0000000000
18.8351001740 5.5827798843 -1.0295499563 0.0000000000
15.8083000183 6.4190797806 -0.6951180100 0.0000000000
21.8358001709 5.3189601898 -0.7848200202 0.0000000000
16.7066001892 5.8440098763 -0.4118509889 0.0000000000
15.7501001358 6.3698401451 -0.2965509892 0.0000000000
21.7161998749 6.3955497742 -0.6588420272 0.0000000000
24.1042995453 8.3939895630 0.0000000000 0.0000000000
23.9552993774 5.7953901291 -0.2869290113 0.0000000000
24.8714008331 7.3106198311 -0.1506679952 0.0000000000
13.5073995590 4.6985001564 -1.5404800177 0.0000000000
16.4810009003 3.9780399799 -1.5826499462 0.0000000000
22.9638996124 5.5385899544 0.2750090063 0.0000000000
16.2075996399 5.6314101219 -1.1998100281 0.0000000000
16.3502006531 4.7966399193 -1.3910100460 0.0000000000
28.9550991058 8.4945001602 0.5267140269 0.0000000000
15.8317003250 6.3803400993 -1.0939300060 0.0000000000
19.2637004852 4.6390399933 -1.1539399624 0.0000000000
18.9032993317 5.5348801613 -1.0322699547 0.0000000000
15.8666000366 6.3815398216 -0.6967459917 0.0000000000
21.9116001129 5.2605199814 -0.7869139910 0.0000000000
20.8185005188 7.2049899101 -0.5126270056 0.0000000000
15.8093996048 6.3296899796 -0.2972489893 0.0000000000
21.7653007507 6.3275198936 -0.6596570015 0.0000000000
24.1749992371 8.3241300583 0.0000000000 0.0000000000
15.8891000748 6.3519701958 0.0994535014 0.0000000000
22.2807006836 6.4647102356 -0.1348360032 0.0000000000
13.5763998032 4.6694297791 -1.5464799404 0.0000000000
16.5296993256 3.9287700653 -1.5859999657 0.0000000000
22.8624992371 5.4297499657 0.2735649943 0.0000000000
16.2611999512 5.5864701271 -1.2023199797 0.0000000000
16.4127998352 4.7528400421 -1.3949099779 0.0000000000
19.8495006561 7.9191699028 0.6219559908 0.0000000000
22.5000000000 6.5155801773 0.4088749886 0.0000000000
15.8945999146 6.3413100243 -1.0967400074 0.0000000000
19.3264007568 4.5828199387 -1.1567300558 0.0000000000
18.2665996552 6.2647500038 -0.8995400071 0.0000000000
18.9839000702 5.4866099358 -1.0356199741 0.0000000000
15.9146995544 6.3364601135 -0.6978859901 0.0000000000
21.9920997620 5.1987199783 -0.7891470194 0.0000000000
15.8636999130 6.2905001640 -0.2978779972 0.0000000000
21.8630008698 6.2773799896 -0.6619840264 0.0000000000
21.7679004669 7.4146199226 0.0000000000 0.0000000000
24.0837001801 5.6532201767 -0.2879999876 0.0000000000
13.6295003891 4.6371898651 -1.5507700443 0.0000000000
16.5969009399 3.8866500854 -1.5911999941 0.0000000000
27.5963001251 9.3837995529 0.6782600284 0.0000000000
26.9852008820 6.3144202232 0.3226439953 0.0000000000
16.3211994171 5.5466399193 -1.2053899765 0.0000000000
16.4783000946 4.7126398087 -1.3991400003 0.0000000000
19.8421993256 7.8400697708 0.6209080219 0.0000000000
15.9526996613 6.3032398224 -1.0993000269 0.0000000000
19.4193000793 4.5368800163 -1.1613899469 0.0000000000
21.5912990570 7.3292598724 1.3279000521 0.0000000000
22.3586006165 6.3859100342 0.9473400116 0.0000000000
18.3365001678 6.2208299637 -0.9019590020 0.0000000000
19.0480995178 5.4367799759 -1.0381400585 0.0000000000
15.9913997650 6.3056402206 -0.7003279924 0.0000000000
22.0792999268 5.1420798302 -0.7916600108 0.0000000000
20.9465999603 7.0900402069 -0.5145810246 0.0000000000
15.9228000641 6.2497000694 -0.2985759974 0.0000000000
21.9424991608 6.2173800468 -0.6637300253 0.0000000000
21.6343994141 7.2849798203 0.0000000000 0.0000000000
24.1539993286 5.5808200836 -0.2886059880 0.0000000000
22.2702999115 6.2976598740 -0.1345109940 0.0000000000
13.6794996262 4.6009998322 -1.5546200275 0.0000000000
16.6686000824 3.8421099186 -1.5967799425 0.0000000000
27.4773006439 9.2364501953 0.6745380163 0.0000000000
16.3782005310 5.5023398399 -1.2081799507 0.0000000000
16.5254001617 4.6637601852 -1.4017499685 0.0000000000
22.5477008820 6.3633599281 0.4089449942 0.0000000000
16.0079994202 6.2606000900 -1.1016000509 0.0000000000
19.4855995178 4.4807000160 -1.1644099951 0.0000000000
21.6886997223 7.2779798508 1.3323099613 0.0000000000
18.4073009491 6.1733098030 -0.9043790102 0.0000000000
19.1245994568 5.3864998817 -1.0412800312 0.0000000000
16.0207996368 6.2526898384 -0.7006539702 0.0000000000
22.1595001221 5.0792698860 -0.7938939929 0.0000000000
21.0610008240 7.0510101318 -0.5168139935 0.0000000000
15.9801998138 6.2015399933 -0.2992039919 0.0000000000
22.0317001343 6.1513600349 -0.6657080054 0.0000000000
24.2658996582 5.5041699409 -0.2896769941 0.0000000000
23.9897003174 9.2953500748 0.1495289952 0.0000000000
22.3906002045 6.2389397621 -0.1350920051 0.0000000000
13.6969995499 4.5484399796 -1.5546200275 0.0000000000
16.7220001221 3.7868800163 -1.6004999876 0.0000000000
28.0401000977 9.3059597015 0.6874719858 0.0000000000
22.8722000122 5.1754498482 0.2730070055 0.0000000000
16.4484996796 5.4557499886 -1.2118099928 0.0000000000
16.5816001892 4.6109499931 -1.4049999714 0.0000000000
27.8162994385 10.7557001114 0.8679450154 0.0000000000
16.0776996613 6.2135500908 -1.1046700478 0.0000000000
19.5494003296 4.4163999557 -1.1671999693 0.0000000000
22.8978004456 6.3587198257 0.9681820273 0.0000000000
18.4953994751 6.1239299774 -0.9075430036 0.0000000000
19.2105998993 5.3311901093 -1.0448299646 0.0000000000
16.0632991791 6.1983199120 -0.7014679909 0.0000000000
22.2528991699 5.0108299255 -0.7965459824 0.0000000000
21.1221008301 6.9813799858 -0.5176510215 0.0000000000
16.0331993103 6.1642198563 -0.2998319864 0.0000000000
22.1550006866 6.1108198166 -0.6688500047 0.0000000000
21.6238994598 7.1137700081 0.0000000000 0.0000000000
24.3572006226 5.4444899559 -0.2905609906 0.0000000000
24.0337009430 9.2256698608 0.1496219933 0.0000000000
22.2558994293 6.1261100769 -0.1341619939 0.0000000000
13.7414999008 4.5153198242 -1.5580500364 0.0000000000
16.7726993561 3.7430000305 -1.6042100191 0.0000000000
16.5034999847 5.4164900780 -1.2145999670 0.0000000000
16.6459999084 4.5725598335 -1.4092299938 0.0000000000
27.9022006989 10.6883001328 0.8695740104 0.0000000000
22.3794994354 6.1475300789 0.4051049948 0.0000000000
16.1408004761 6.1829600334 -1.1077400446 0.0000000000
19.6294002533 4.3697199821 -1.1711499691 0.0000000000
