VERSION 0.7
FIELDS x y z rgb
SIZE 4 4 4 4
TYPE F F F F
COUNT 1 1 1 1
WIDTH 892
HEIGHT 1
VIEWPOINT 0.0 0.0 0.0 1.0 0.0 0.0 0.0
POINTS 892
DATA ascii
3.9221811295 2.7351338863 -2.2297339439 0.0000000000
13.3709344864 11.4158220291 -0.3068831265 0.0000000000
13.3234310150 9.2876415253 -0.4726629853 0.0000000000
5.8501667976 4.5182614326 -2.0692605972 0.0000000000
7.6171813011 5.3078923225 -1.8568384647 0.0000000000
12.6457004547 9.7631359100 0.0000000000 0.0000000000
13.9337024689 8.7304315567 -0.1914259642 0.0000000000
8.2374429703 6.3597331047 -1.6190575361 0.0000000000
9.4454650879 6.5794491768 -1.4652165174 0.0000000000
15.0495405197 12.8353624344 0.1149596497 0.0000000000
13.2549285889 9.2295808792 -0.0938740298 0.0000000000
9.4558839798 7.2951655388 -1.2864497900 0.0000000000
11.3333473206 7.0928678513 -1.2480529547 0.0000000000
12.9925460815 10.0200653076 0.3817946613 0.0000000000
13.9194488525 8.7079744339 0.1911465824 0.0000000000
11.0890130997 8.5489435196 -0.9791018367 0.0000000000
11.1704492569 7.7694482803 -1.1107877493 0.0000000000
14.9975872040 12.7729768753 0.5733162165 0.0000000000
13.3712186813 9.2967004776 0.2842648029 0.0000000000
10.7809820175 9.1785802841 -0.9074295759 0.0000000000
13.3344030380 8.3354959488 -0.9158058763 0.0000000000
12.3748226166 9.5298957825 -0.7275606394 0.0000000000
12.9743509293 9.0140504837 -0.8279548287 0.0000000000
12.0045909882 10.2094841003 -0.6420352459 0.0000000000
14.0770149231 8.7860498428 -0.5794712305 0.0000000000
12.6656341553 9.7432909012 -0.3718380332 0.0000000000
3.9853594303 2.7585647106 -2.2601623535 0.0000000000
13.4381580353 11.3923549652 -0.3075113893 0.0000000000
13.3722095490 9.2524528503 -0.4732448161 0.0000000000
5.8689594269 4.5001568794 -2.0703387260 0.0000000000
7.6388888359 5.2835021019 -1.8576229811 0.0000000000
12.6638298035 9.7067680359 0.0000000000 0.0000000000
13.9927845001 8.6961936951 -0.1917984933 0.0000000000
8.2826595306 6.3463258743 -1.6233618259 0.0000000000
9.4781656265 6.5532078743 -1.4667316675 0.0000000000
15.1278295517 12.8111858368 0.1152153760 0.0000000000
13.2969369888 9.1900787354 -0.0939437747 0.0000000000
9.4844484329 7.2645325661 -1.2868781090 0.0000000000
11.3546543121 7.0511631966 -1.2476811409 0.0000000000
12.9988679886 9.9527721405 0.3809571862 0.0000000000
13.9633531570 8.6677713394 0.1913328469 0.0000000000
11.1282930374 8.5174589157 -0.9799389243 0.0000000000
11.2729606628 7.7825036049 -1.1182733774 0.0000000000
17.8355674744 15.0828981400 0.6797875762 0.0000000000
13.4315958023 9.2727584839 0.2848930955 0.0000000000
10.8540325165 9.1788654327 -0.9110112190 0.0000000000
13.3939590454 8.3078432083 -0.9178988338 0.0000000000
12.4334058762 9.5060567856 -0.7290496230 0.0000000000
13.0254669189 8.9823131561 -0.8292108774 0.0000000000
12.0554237366 10.1804113388 -0.6428493857 0.0000000000
14.1245918274 8.7473821640 -0.5801692605 0.0000000000
3.9466829300 2.7124800682 -2.2331149578 0.0000000000
13.4258871078 9.2239065170 -0.4740593433 0.0000000000
5.8440117836 4.4503321648 -2.0563209057 0.0000000000
7.6757674217 5.2714648247 -1.8623298407 0.0000000000
12.6927661896 9.6622972488 0.0000000000 0.0000000000
14.0385656357 8.6602439880 -0.1920313090 0.0000000000
8.2942228317 6.3116440773 -1.6215171814 0.0000000000
9.4933023453 6.5172495842 -1.4657214880 0.0000000000
12.6479797363 10.6392745972 0.0960593075 0.0000000000
13.3504257202 9.1617765427 -0.0941065028 0.0000000000
9.5306434631 7.2498955727 -1.2898768187 0.0000000000
11.4050970078 7.0301895142 -1.2506554127 0.0000000000
13.0095195770 9.8926677704 0.3803058267 0.0000000000
14.0056409836 8.6298122406 0.1915190965 0.0000000000
11.1882438660 8.5046567917 -0.9827291965 0.0000000000
11.2756881714 7.7292995453 -1.1159951687 0.0000000000
18.3141021729 15.3837041855 0.6960783005 0.0000000000
13.3303203583 9.1377162933 0.2821007073 0.0000000000
11.0066738129 9.2455205917 -0.9212443829 0.0000000000
13.4588403702 8.2864112854 -0.9204570055 0.0000000000
13.8751401901 9.5040645599 0.6851849556 0.0000000000
12.4680433273 9.4671907425 -0.7292357683 0.0000000000
13.0782537460 8.9548673630 -0.8306763172 0.0000000000
12.1044273376 10.1532201767 -0.6436635256 0.0000000000
14.1637382507 8.7067756653 -0.5805880427 0.0000000000
12.8176851273 9.7221021652 -0.3743504584 0.0000000000
3.8692779541 2.6394424438 -2.1840910912 0.0000000000
12.6133422852 10.5463914871 -0.2869873643 0.0000000000
13.4613056183 9.1792373657 -0.4741756916 0.0000000000
5.9025273323 4.4624271393 -2.0714170933 0.0000000000
7.7135672569 5.2578945160 -1.8670365810 0.0000000000
12.7296085358 9.6203441620 0.0000000000 0.0000000000
14.0774402618 8.6199083328 -0.1921710074 0.0000000000
8.3497934341 6.3103184700 -1.6282811165 0.0000000000
9.5258312225 6.4907751083 -1.4672367573 0.0000000000
12.6082916260 10.5309562683 0.0954781175 0.0000000000
13.3955478668 9.1241264343 -0.0941994935 0.0000000000
9.5908031464 7.2429471016 -1.2945891619 0.0000000000
11.4533510208 7.0048813820 -1.2532578707 0.0000000000
13.0152473450 9.8255119324 0.3794683516 0.0000000000
14.0561542511 8.5933885574 0.1917984933 0.0000000000
11.2720088959 8.5064125061 -0.9874726534 0.0000000000
11.3157844543 7.6988635063 -1.1172969341 0.0000000000
17.8518466949 14.8894405365 0.6765294671 0.0000000000
11.0542068481 9.2198286057 -0.9225235581 0.0000000000
13.5081291199 8.2518711090 -0.9218522906 0.0000000000
13.9478931427 9.4825372696 0.6871389151 0.0000000000
12.5297298431 9.4452581406 -0.7309108973 0.0000000000
13.1259508133 8.9203872681 -0.8317230344 0.0000000000
12.1520786285 10.1211376190 -0.6443148255 0.0000000000
14.2076950073 8.6656084061 -0.5811464190 0.0000000000
12.8340625763 9.6606283188 -0.3737921417 0.0000000000
4.0255613327 2.7255101204 -2.2669243813 0.0000000000
13.5131320953 9.1456394196 -0.4748738706 0.0000000000
5.9365525246 4.4556698799 -2.0778868198 0.0000000000
7.7416200638 5.2375307083 -1.8693900108 0.0000000000
14.1313714981 8.5852537155 -0.1924969554 0.0000000000
8.3907384872 6.2953658104 -1.6319706440 0.0000000000
9.5615777969 6.4663758278 -1.4692569971 0.0000000000
12.5526084900 10.4102783203 0.0947806910 0.0000000000
13.4438848495 9.0885124207 -0.0943157375 0.0000000000
9.6287546158 7.2189674377 -1.2963026762 0.0000000000
11.5356149673 6.9999828339 -1.2595779896 0.0000000000
13.1358652115 9.8447723389 0.3819807470 0.0000000000
14.1031637192 8.5546426773 0.1920313090 0.0000000000
11.3623085022 8.5124711990 -0.9927741289 0.0000000000
11.3525009155 7.6660103798 -1.1182733774 0.0000000000
17.9529819489 14.8678388596 0.6783912778 0.0000000000
10.9940910339 9.1048030853 -0.9148486257 0.0000000000
13.5539264679 8.2150173187 -0.9230151176 0.0000000000
13.9510908127 9.4136734009 0.6856734157 0.0000000000
12.5978136063 9.4277982712 -0.7329582572 0.0000000000
13.1868133545 8.8946180344 -0.8336071372 0.0000000000
12.2150535583 10.1015806198 -0.6457803249 0.0000000000
14.2583780289 8.6283798218 -0.5819839835 0.0000000000
4.0139880180 2.6972877979 -2.2550909519 0.0000000000
13.5615692139 9.1095609665 -0.4754557014 0.0000000000
5.9458918571 4.4303174019 -2.0757303238 0.0000000000
7.7435736656 5.1995429993 -1.8654676676 0.0000000000
12.8125000000 9.5431871414 0.0000000000 0.0000000000
14.1783809662 8.5461978912 -0.1927297711 0.0000000000
8.4031534195 6.2589554787 -1.6301258802 0.0000000000
9.5939750671 6.4395942688 -1.4707722664 0.0000000000
12.5394659042 10.3257160187 0.0944087282 0.0000000000
13.4888134003 9.0504436493 -0.0944087282 0.0000000000
9.6698465347 7.1971855164 -1.2984446287 0.0000000000
11.5497426987 6.9535107613 -1.2584626675 0.0000000000
13.2599821091 9.8656978607 0.3845862448 0.0000000000
14.1535015106 8.5177354813 0.1923106909 0.0000000000
11.2991018295 8.4036989212 -0.9846823812 0.0000000000
11.4520502090 7.6751661301 -1.1254334450 0.0000000000
18.5236053467 15.2317104340 0.6979401112 0.0000000000
11.1337203979 9.1551074982 -0.9238026738 0.0000000000
13.6030521393 8.1800022125 -0.9244104624 0.0000000000
12.6402673721 9.3909149170 -0.7335166335 0.0000000000
13.2509746552 8.8707542419 -0.8357005715 0.0000000000
12.2625951767 10.0690259933 -0.6464316249 0.0000000000
14.3124008179 8.5929594040 -0.5829612017 0.0000000000
12.8979816437 9.5684127808 -0.3736990988 0.0000000000
3.9630582333 2.6430313587 -2.2212815285 0.0000000000
13.6065921783 9.0710382462 -0.4759211242 0.0000000000
5.9706110954 4.4164071083 -2.0789651871 0.0000000000
7.7714676857 5.1790065765 -1.8678210974 0.0000000000
12.8521661758 9.5031614304 0.0000000000 0.0000000000
14.2252902985 8.5069179535 -0.1929626018 0.0000000000
8.4662637711 6.2601337433 -1.6381196976 0.0000000000
9.6428136826 6.4236650467 -1.4748128653 0.0000000000
12.5227909088 10.2388401031 0.0940135121 0.0000000000
13.5436286926 9.0188226700 -0.0945714563 0.0000000000
9.7013082504 7.1681146622 -1.2993013859 0.0000000000
11.6081361771 6.9335751534 -1.2621804476 0.0000000000
13.2460899353 9.7837133408 0.3831904531 0.0000000000
14.1968841553 8.4764804840 0.1924969554 0.0000000000
11.3412075043 8.3736867905 -0.9857984781 0.0000000000
11.5318832397 7.6704716682 -1.1306407452 0.0000000000
19.4097919464 15.8471698761 0.7292414904 0.0000000000
11.1779775620 9.1262865067 -0.9248260260 0.0000000000
13.6692447662 8.1549739838 -0.9269685745 0.0000000000
13.7668304443 9.1501235962 0.6734612584 0.0000000000
12.6986961365 9.3657083511 -0.7350056171 0.0000000000
13.2984943390 8.8354988098 -0.8367472887 0.0000000000
12.3193521500 10.0438385010 -0.6475714445 0.0000000000
14.3560466766 8.5511302948 -0.5835195780 0.0000000000
4.0115594864 2.6551930904 -2.2432577610 0.0000000000
12.5421037674 10.1926908493 -0.2821007073 0.0000000000
13.6515111923 9.0323123932 -0.4763865769 0.0000000000
5.9797811508 4.3909792900 -2.0768086910 0.0000000000
7.8222141266 5.1734848022 -1.8756657839 0.0000000000
12.8917093277 9.4629755020 0.0000000000 0.0000000000
14.2720975876 8.4674148560 -0.1931954175 0.0000000000
8.5008096695 6.2398977280 -1.6405793428 0.0000000000
9.6651773453 6.3899664879 -1.4748128653 0.0000000000
12.5211887360 10.1648130417 0.0937345475 0.0000000000
9.7519245148 7.1530246735 -1.3027285337 0.0000000000
11.6425476074 6.8991041183 -1.2632957697 0.0000000000
13.2479114532 9.7137708664 0.3822599053 0.0000000000
11.4411716461 8.3859443665 -0.9919370413 0.0000000000
11.5120077133 7.5994219780 -1.1260843277 0.0000000000
15.4055137634 12.4885005951 0.5771561861 0.0000000000
11.2376747131 9.1098365784 -0.9271284938 0.0000000000
13.7251195908 8.1234807968 -0.9288290143 0.0000000000
13.7686605453 9.0822067261 0.6719957590 0.0000000000
12.7538795471 9.3378477097 -0.7363085151 0.0000000000
13.3559341431 8.8066158295 -0.8384220004 0.0000000000
12.3636560440 10.0083189011 -0.6480599046 0.0000000000
14.4133405685 8.5172367096 -0.5846363902 0.0000000000
12.9854068756 9.4969224930 -0.3743504584 0.0000000000
4.1268529892 2.7108356953 -2.3024241924 0.0000000000
12.5402565002 10.1187114716 -0.2812629938 0.0000000000
13.6929836273 8.9911880493 -0.4767356813 0.0000000000
6.0075230598 4.3791551590 -2.0811216831 0.0000000000
7.8467831612 5.1504530907 -1.8772346973 0.0000000000
12.9408264160 9.4296951294 0.0000000000 0.0000000000
14.3237209320 8.4272174835 -0.1934747994 0.0000000000
8.5204277039 6.2063717842 -1.6399644613 0.0000000000
9.6642007828 6.3409519196 -1.4712773561 0.0000000000
12.5223379135 10.0934314728 0.0934788212 0.0000000000
13.6330184937 8.9416017532 -0.0947574377 0.0000000000
9.7832641602 7.1236224174 -1.3035852909 0.0000000000
11.6871595383 6.8705320358 -1.2655264139 0.0000000000
13.2882041931 9.6721744537 0.3824460208 0.0000000000
14.3005437851 8.4035053253 0.1931022853 0.0000000000
11.4929599762 8.3623895645 -0.9938902259 0.0000000000
11.5718126297 7.5810384750 -1.1293388605 0.0000000000
13.3029708862 10.7073354721 0.4969826937 0.0000000000
11.2740983963 9.0710887909 -0.9273843169 0.0000000000
13.7740535736 8.0876531601 -0.9302243590 0.0000000000
12.8057899475 9.3073663712 -0.7374252677 0.0000000000
13.4066476822 8.7730646133 -0.8396781087 0.0000000000
12.4234371185 9.9851303101 -0.6493625641 0.0000000000
14.4602270126 8.4769811630 -0.5853343606 0.0000000000
4.0026659966 2.6093049049 -2.2280435562 0.0000000000
12.5318031311 10.0398674011 -0.2802856565 0.0000000000
13.7443847656 8.9564332962 -0.4774338305 0.0000000000
6.0258932114 4.3604164124 -2.0822000504 0.0000000000
7.8548541069 5.1166086197 -1.8748812675 0.0000000000
12.9995908737 9.4032211304 0.0000000000 0.0000000000
14.3703222275 8.3872480392 -0.1937076300 0.0000000000
8.5388374329 6.1742763519 -1.6393495798 0.0000000000
9.6729745865 6.2985186577 -1.4692569971 0.0000000000
12.5293874741 10.0271654129 0.0932695940 0.0000000000
13.6775569916 8.9026870728 -0.0948504284 0.0000000000
9.8177404404 7.0964183807 -1.3048704863 0.0000000000
11.8005208969 6.8818602562 -1.2751926184 0.0000000000
13.2505760193 9.5742063522 0.3803988695 0.0000000000
14.3574342728 8.3696508408 0.1934747994 0.0000000000
11.6611728668 8.4226856232 -1.0058883429 0.0000000000
11.5547533035 7.5123491287 -1.1251078844 0.0000000000
13.2746725082 10.6084165573 0.4945390821 0.0000000000
14.7198028564 9.5701131821 0.3064642549 0.0000000000
11.3165912628 9.0436210632 -0.9284076691 0.0000000000
13.8332557678 8.0576124191 -0.9323173165 0.0000000000
13.7982149124 8.9640893936 0.6703674793 0.0000000000
12.8576421738 9.2766361237 -0.7385420203 0.0000000000
13.4673404694 8.7457933426 -0.8415621519 0.0000000000
12.4800834656 9.9591541290 -0.6505023241 0.0000000000
14.5000963211 8.4324827194 -0.5857531428 0.0000000000
13.0773448944 9.4247407913 -0.3750948608 0.0000000000
4.2004661560 2.7174034119 -2.3328528404 0.0000000000
12.5292129517 9.9661865234 -0.2794479430 0.0000000000
13.7856369019 8.9149160385 -0.4777829349 0.0000000000
6.0254344940 4.3281197548 -2.0768086910 0.0000000000
7.8990187645 5.1061940193 -1.8811570406 0.0000000000
13.0388336182 9.3624525070 0.0000000000 0.0000000000
14.4361276627 8.3615999222 -0.1942198277 0.0000000000
8.5656862259 6.1505370140 -1.6405793428 0.0000000000
9.7615566254 6.3077864647 -1.4793585539 0.0000000000
12.5580492020 9.9783916473 0.0932230949 0.0000000000
13.7186298370 8.8613996506 -0.0949201733 0.0000000000
9.8618392944 7.0760154724 -1.3074407578 0.0000000000
11.8106813431 6.8326492310 -1.2737054825 0.0000000000
14.4004125595 8.3274917603 0.1936610639 0.0000000000
11.7488746643 8.4237804413 -1.0109108686 0.0000000000
11.7082052231 7.5541028976 -1.1374753714 0.0000000000
13.2395820618 10.5048551559 0.4918627441 0.0000000000
11.3824872971 9.0313568115 -0.9312217832 0.0000000000
13.8889579773 8.0252590179 -0.9341778159 0.0000000000
12.9094362259 9.2456569672 -0.7396587133 0.0000000000
13.5212907791 8.7138776779 -0.8430275917 0.0000000000
12.5304346085 9.9279403687 -0.6513164639 0.0000000000
14.5502185822 8.3938016891 -0.5865907669 0.0000000000
13.1784620285 9.4278964996 -0.3770489693 0.0000000000
4.1550140381 2.6674716473 -2.3024241924 0.0000000000
13.8301315308 8.8753786087 -0.4782483876 0.0000000000
6.0405058861 4.3070607185 -2.0768086910 0.0000000000
7.9233970642 5.0828256607 -1.8827259541 0.0000000000
13.0844640732 9.3261680603 0.0000000000 0.0000000000
14.4652271271 8.3111572266 -0.1942198277 0.0000000000
8.5999774933 6.1297760010 -1.6430389881 0.0000000000
9.7901954651 6.2779574394 -1.4803686142 0.0000000000
12.5896635056 9.9320182800 0.0931998491 0.0000000000
13.7797861099 8.8328866959 -0.0951294005 0.0000000000
9.8897180557 7.0438551903 -1.3078691959 0.0000000000
11.8931827545 6.8250799179 -1.2800257206 0.0000000000
14.4467401505 8.2871255875 0.1938938797 0.0000000000
11.8107166290 8.4058551788 -1.0137010813 0.0000000000
11.7680778503 7.5346846581 -1.1407299042 0.0000000000
13.2667484283 10.4511537552 0.4915136695 0.0000000000
14.2675580978 9.1350135803 0.2957135737 0.0000000000
11.4421653748 9.0138006210 -0.9335242510 0.0000000000
13.9446029663 7.9926147461 -0.9360382557 0.0000000000
13.8739252090 8.8761577606 0.6710188389 0.0000000000
12.9741964340 9.2236900330 -0.7415199876 0.0000000000
13.5852775574 8.6881475449 -0.8451210260 0.0000000000
12.5901432037 9.9039087296 -0.6526191235 0.0000000000
14.5967779160 8.3528881073 -0.5872887373 0.0000000000
4.1271510124 2.6302978992 -2.2821385860 0.0000000000
13.8763475418 8.8402090073 -0.4788301885 0.0000000000
6.0516119003 4.2847800255 -2.0757303238 0.0000000000
7.9501342773 5.0628437996 -1.8850793839 0.0000000000
13.1316442490 9.2942819595 0.0000000000 0.0000000000
14.5170307159 8.2770109177 -0.1945457757 0.0000000000
8.6202573776 6.1012239456 -1.6430389881 0.0000000000
9.7841815948 6.2284107208 -1.4763280153 0.0000000000
12.6036386490 9.8754129410 0.0930603594 0.0000000000
13.8292484283 8.8000268936 -0.0952688903 0.0000000000
9.9260101318 7.0202069283 -1.3095827103 0.0000000000
11.8949851990 6.7737779617 -1.2777950764 0.0000000000
13.1884632111 9.3241367340 0.3758392930 0.0000000000
14.4915218353 8.2490653992 0.1941267103 0.0000000000
11.8613367081 8.3827638626 -1.0156542063 0.0000000000
11.8064575195 7.5041732788 -1.1420317888 0.0000000000
13.2509489059 10.3676815033 0.4896518588 0.0000000000
14.2318449020 9.0422601700 0.2943173945 0.0000000000
11.4798479080 8.9787244797 -0.9340358973 0.0000000000
14.0022697449 7.9640970230 -0.9381312132 0.0000000000
13.9268999100 8.8451004028 0.6721585989 0.0000000000
13.0373544693 9.2036590576 -0.7433812022 0.0000000000
13.6443643570 8.6623182297 -0.8470051289 0.0000000000
12.6386642456 9.8744068146 -0.6534332633 0.0000000000
14.6800165176 8.3360214233 -0.5895223022 0.0000000000
13.2357940674 9.3333663940 -0.3768628836 0.0000000000
4.2124404907 2.6650528908 -2.3244004250 0.0000000000
12.6168365479 9.8290138245 -0.2791686952 0.0000000000
13.9326210022 8.8112411499 -0.4797610939 0.0000000000
6.0909957886 4.2824120522 -2.0843567848 0.0000000000
7.9900870323 5.0511236191 -1.8905706406 0.0000000000
13.1983909607 9.2759847641 0.0000000000 0.0000000000
14.5771684647 8.2440071106 -0.1949648559 0.0000000000
8.6609067917 6.0847291946 -1.6467283964 0.0000000000
9.8450345993 6.2213678360 -1.4823889732 0.0000000000
12.6300039291 9.8286504745 0.0930138677 0.0000000000
13.8617362976 8.7562551498 -0.0952921361 0.0000000000
9.9589986801 6.9941096306 -1.3108679056 0.0000000000
12.0110015869 6.7871980667 -1.2878329754 0.0000000000
13.2356748581 9.2918386459 0.3763045669 0.0000000000
14.5362100601 8.2108001709 0.1943595260 0.0000000000
11.8629398346 8.3250474930 -1.0134220123 0.0000000000
11.8919677734 7.5032730103 -1.1478899717 0.0000000000
13.2442131042 10.2917890549 0.4881391525 0.0000000000
14.1925334930 8.9548215866 0.2929211855 0.0000000000
11.5206069946 8.9524126053 -0.9350592494 0.0000000000
14.0599012375 7.9352846146 -0.9402242303 0.0000000000
13.9662971497 8.8052625656 0.6726471186 0.0000000000
13.0841627121 9.1718425751 -0.7443118691 0.0000000000
13.6966705322 8.6319322586 -0.8484705091 0.0000000000
12.6902847290 9.8471412659 -0.6544102430 0.0000000000
14.6971302032 8.2814073563 -0.5891035199 0.0000000000
13.2846736908 9.2985734940 -0.3773281276 0.0000000000
4.1699786186 2.6168370247 -2.2956624031 0.0000000000
13.9783706665 8.7686147690 -0.4802265465 0.0000000000
6.1066508293 4.2600584030 -2.0843567848 0.0000000000
8.0151929855 5.0259718895 -1.8921396732 0.0000000000
13.2355813980 9.2298355103 0.0000000000 0.0000000000
14.5968198776 8.1846551895 -0.1948251724 0.0000000000
8.6863927841 6.0552043915 -1.6473433971 0.0000000000
9.8475980759 6.1725978851 -1.4793585539 0.0000000000
12.6564455032 9.7749576569 0.0929441229 0.0000000000
13.9106845856 8.7160091400 -0.0954083726 0.0000000000
10.0008811951 6.9689292908 -1.3130098581 0.0000000000
12.0080013275 6.7275571823 -1.2848588228 0.0000000000
14.5976142883 8.1750564575 0.1947786063 0.0000000000
11.9817876816 8.3430757523 -1.0209558010 0.0000000000
11.9430456161 7.4744415283 -1.1501681805 0.0000000000
13.4939756393 10.4067754745 0.4959354103 0.0000000000
14.1506748199 8.8560657501 0.2913853824 0.0000000000
11.5723075867 8.9247541428 -0.9365941882 0.0000000000
14.1202535629 7.9012484550 -0.9423172474 0.0000000000
14.0221967697 8.7688484192 0.6737868786 0.0000000000
13.1373729706 9.1375141144 -0.7454286218 0.0000000000
13.7519264221 8.5964946747 -0.8499359488 0.0000000000
12.7516231537 9.8200721741 -0.6557129025 0.0000000000
14.6924858093 8.2079877853 -0.5877075195 0.0000000000
13.3269033432 9.2589893341 -0.3776072860 0.0000000000
4.0770907402 2.5397405624 -2.2398767471 0.0000000000
12.6788034439 9.7358217239 -0.2790290713 0.0000000000
14.0243415833 8.7327804565 -0.4808083475 0.0000000000
6.1334099770 4.2485580444 -2.0886700153 0.0000000000
8.0351457596 5.0014376640 -1.8929240704 0.0000000000
13.2858476639 9.1995573044 0.0000000000 0.0000000000
14.6434297562 8.1504287720 -0.1951045543 0.0000000000
8.6988735199 6.0233855247 -1.6461135149 0.0000000000
9.9017038345 6.1608705521 -1.4844092131 0.0000000000
12.6856174469 9.7304992676 0.0929208770 0.0000000000
13.9564943314 8.6803941727 -0.0955246165 0.0000000000
10.0370178223 6.9447784424 -1.3147233725 0.0000000000
12.0894212723 6.7205967903 -1.2911789417 0.0000000000
14.6491165161 8.1402034760 0.1951045543 0.0000000000
12.0192346573 8.3101043701 -1.0217927694 0.0000000000
11.9440603256 7.4200692177 -1.1478899717 0.0000000000
13.4331855774 10.2890329361 0.4924445748 0.0000000000
11.6176843643 8.8984661102 -0.9378733635 0.0000000000
14.1673250198 7.8660111427 -0.9437125921 0.0000000000
14.0647811890 8.7307329178 0.6744382381 0.0000000000
13.1939039230 9.1120643616 -0.7469176054 0.0000000000
13.8109054565 8.5697994232 -0.8518200517 0.0000000000
12.8063402176 9.7947282791 -0.6568526626 0.0000000000
13.3690176010 9.2192239761 -0.3778864443 0.0000000000
4.1506896019 2.5655200481 -2.2753767967 0.0000000000
14.0717468262 8.6942806244 -0.4813901484 0.0000000000
6.1450285912 4.2249403000 -2.0875916481 0.0000000000
8.0525550842 4.9733591080 -1.8929240704 0.0000000000
13.3310651779 9.1621875763 0.0000000000 0.0000000000
14.6928005219 8.1108617783 -0.1953839362 0.0000000000
8.7589340210 6.0198483467 -1.6534924507 0.0000000000
9.9569129944 6.1471142769 -1.4894599915 0.0000000000
12.7195062637 9.6861591339 0.0929208770 0.0000000000
14.0071325302 8.6442279816 -0.0956640989 0.0000000000
10.0907039642 6.9299635887 -1.3185788393 0.0000000000
12.1546592712 6.7014312744 -1.2956403494 0.0000000000
13.2959871292 9.1278324127 0.3752809763 0.0000000000
14.7124719620 8.1083250046 0.1955702007 0.0000000000
12.0350093842 8.2590675354 -1.0206767321 0.0000000000
12.0411586761 7.4222626686 -1.1547245979 0.0000000000
13.3385295868 10.1428537369 0.4876736999 0.0000000000
11.6677398682 8.8723554611 -0.9394083619 0.0000000000
14.2191820145 7.8299932480 -0.9453404546 0.0000000000
14.1257982254 8.7004480362 0.6759036779 0.0000000000
13.2487001419 9.0817670822 -0.7482204437 0.0000000000
13.8679475784 8.5382928848 -0.8534947634 0.0000000000
12.8309030533 9.7427148819 -0.6563642025 0.0000000000
14.7830457687 8.1270484924 -0.5891035199 0.0000000000
13.4176177979 9.1837949753 -0.3783517182 0.0000000000
4.1627097130 2.5529110432 -2.2770671844 0.0000000000
12.7815418243 9.6736202240 -0.2797969878 0.0000000000
14.1190528870 8.6555566788 -0.4819719791 0.0000000000
6.1788291931 4.2164916992 -2.0940613747 0.0000000000
8.1066541672 4.9677639008 -1.9015532732 0.0000000000
13.3695745468 9.1201057434 0.0000000000 0.0000000000
14.7350568771 8.0672082901 -0.1955702007 0.0000000000
8.7864236832 5.9936919212 -1.6547223330 0.0000000000
9.9918441772 6.1206111908 -1.4914802313 0.0000000000
12.7564306259 9.6441125870 0.0929441229 0.0000000000
14.0747451782 8.6182584763 -0.0959198251 0.0000000000
10.1181182861 6.8969383240 -1.3190072775 0.0000000000
12.2478656769 6.6971774101 -1.3030757904 0.0000000000
13.3079395294 9.0678539276 0.3747226596 0.0000000000
14.7617435455 8.0684289932 0.1958495826 0.0000000000
12.1000423431 8.2417163849 -1.0237460136 0.0000000000
12.0669937134 7.3801860809 -1.1547245979 0.0000000000
13.3578987122 10.0841865540 0.4870918989 0.0000000000
14.0944080353 8.6201553345 0.2883835733 0.0000000000
11.7081966400 8.8387889862 -0.9401758313 0.0000000000
14.2779693604 7.7975373268 -0.9474334717 0.0000000000
14.1697235107 8.6594228745 0.6765549779 0.0000000000
13.3067493439 9.0534467697 -0.7497094870 0.0000000000
13.9283466339 8.5085735321 -0.8553788662 0.0000000000
12.8233432770 9.6665916443 -0.6542474031 0.0000000000
14.8534421921 8.0983591080 -0.5907787085 0.0000000000
13.4595165253 9.1436443329 -0.3786308765 0.0000000000
4.1968169212 2.5527081490 -2.2905910015 0.0000000000
12.8360986710 9.6411190033 -0.2802158296 0.0000000000
14.1643476486 8.6120586395 -0.4824374020 0.0000000000
6.2070002556 4.2024550438 -2.0983746052 0.0000000000
8.1482696533 4.9522781372 -1.9070445299 0.0000000000
13.4128494263 9.0777683258 0.0000000000 0.0000000000
14.7891330719 8.0265026093 -0.1958961487 0.0000000000
8.8017864227 5.9570174217 -1.6534924507 0.0000000000
10.0108184814 6.0818881989 -1.4909751415 0.0000000000
12.7852926254 9.5924921036 0.0928976312 0.0000000000
14.1096563339 8.5686903000 -0.0959430709 0.0000000000
10.1268568039 6.8486676216 -1.3168653250 0.0000000000
12.1988000870 6.6123852730 -1.2952685356 0.0000000000
13.3543376923 9.0279760361 0.3750948608 0.0000000000
14.8263835907 8.0333242416 0.1963152289 0.0000000000
12.1599235535 8.2174205780 -1.0262572765 0.0000000000
12.1553182602 7.3731255531 -1.1605829000 0.0000000000
14.2387514114 8.6368865967 0.2906872928 0.0000000000
11.7660713196 8.8149642944 -0.9422224760 0.0000000000
14.3380575180 7.7622637749 -0.9495264888 0.0000000000
14.2389640808 8.6302175522 0.6783460975 0.0000000000
13.3597135544 9.0180273056 -0.7508262396 0.0000000000
13.9901857376 8.4760951996 -0.8572629690 0.0000000000
12.8810892105 9.6362857819 -0.6553872228 0.0000000000
14.9041252136 8.0552692413 -0.5916162729 0.0000000000
13.5294151306 9.1188364029 -0.3796544373 0.0000000000
4.2017126083 2.5376367569 -2.2889006138 0.0000000000
12.8535022736 9.5911788940 -0.2799366117 0.0000000000
14.2084484100 8.5778493881 -0.4830192327 0.0000000000
6.2233681679 4.1850838661 -2.0994529724 0.0000000000
8.1268472672 4.9043626785 -1.8984153271 0.0000000000
13.4612197876 9.0489749908 0.0000000000 0.0000000000
14.8459682465 7.9970731735 -0.1963152289 0.0000000000
8.8237380981 5.9315414429 -1.6541073322 0.0000000000
10.0332736969 6.0524578094 -1.4914802313 0.0000000000
12.8249864578 9.5594501495 0.0929673687 0.0000000000
14.1502075195 8.5325832367 -0.0960360616 0.0000000000
10.1648292542 6.8279070854 -1.3190072775 0.0000000000
12.2721233368 6.6023330688 -1.3008451462 0.0000000000
14.8600025177 9.9779796600 0.4165032506 0.0000000000
14.8797292709 8.0018615723 0.1966877431 0.0000000000
12.2055578232 8.1925210953 -1.0279314518 0.0000000000
12.1920824051 7.3431301117 -1.1618846655 0.0000000000
13.3524589539 9.9381227493 0.4844155610 0.0000000000
14.2726659775 8.5962381363 0.2908268869 0.0000000000
11.8097181320 8.7898731232 -0.9435016513 0.0000000000
14.3975486755 7.7360816002 -0.9518520236 0.0000000000
14.2762794495 8.5916242599 0.6788346171 0.0000000000
13.4145288467 8.9938125610 -0.7523152232 0.0000000000
14.0407056808 8.4465160370 -0.8587283492 0.0000000000
12.9273376465 9.6076917648 -0.6562013626 0.0000000000
14.9434490204 8.0159654617 -0.5921746492 0.0000000000
13.5530891418 9.0764284134 -0.3795613945 0.0000000000
4.1398873329 2.4786529541 -2.2500195503 0.0000000000
14.2550029755 8.5314435959 -0.4834846854 0.0000000000
6.2458014488 4.1654314995 -2.1016094685 0.0000000000
8.1456184387 4.8731217384 -1.8984153271 0.0000000000
13.5091791153 9.0060968399 0.0000000000 0.0000000000
14.9061822891 7.9524745941 -0.1966877431 0.0000000000
8.8672113419 5.9092240334 -1.6577968597 0.0000000000
10.0530338287 6.0118517876 -1.4909751415 0.0000000000
12.8712463379 9.5172700882 0.0930371135 0.0000000000
14.1931657791 8.4843444824 -0.0961058065 0.0000000000
10.2141408920 6.8042607307 -1.3220059872 0.0000000000
12.3184709549 6.5664033890 -1.3030757904 0.0000000000
14.9315233231 7.9559535980 0.1969671249 0.0000000000
12.2668199539 8.1654949188 -1.0304425955 0.0000000000
12.3023405075 7.3453121185 -1.1696956158 0.0000000000
13.3808708191 9.8796548843 0.4840664864 0.0000000000
15.5949001312 9.3074970245 0.3170055151 0.0000000000
11.8641777039 8.7566184998 -0.9450365901 0.0000000000
14.4623947144 7.6995077133 -0.9541776180 0.0000000000
14.3297567368 8.5490303040 0.6798115969 0.0000000000
13.4822368622 8.9643621445 -0.7541764379 0.0000000000
14.1004800797 8.4089088440 -0.8604031205 0.0000000000
14.9988269806 7.9716601372 -0.5931518674 0.0000000000
13.6044960022 9.0353832245 -0.3800266683 0.0000000000
4.0643596649 2.4141995907 -2.2043769360 0.0000000000
14.3087625504 8.4959211349 -0.4842992127 0.0000000000
6.2474551201 4.1351003647 -2.0972962379 0.0000000000
8.1659526825 4.8466601372 -1.8991998434 0.0000000000
14.9621343613 7.9153571129 -0.1970602572 0.0000000000
8.8910808563 5.8804159164 -1.6584117413 0.0000000000
10.1149091721 6.0010190010 -1.4970360994 0.0000000000
12.9172868729 9.4817504883 0.0931301042 0.0000000000
14.2398977280 8.4449510574 -0.0962220430 0.0000000000
10.2311944962 6.7641787529 -1.3211492300 0.0000000000
12.4187803268 6.5643095970 -1.3112548590 0.0000000000
14.8426675797 9.8092527390 0.4139908552 0.0000000000
14.9910326004 7.9206013680 0.1973862052 0.0000000000
12.3085651398 8.1314239502 -1.0315587521 0.0000000000
12.4067983627 7.3490557671 -1.1771812439 0.0000000000
15.5637407303 9.2190427780 0.3157489300 0.0000000000
11.9124679565 8.7313861847 -0.9465715885 0.0000000000
14.5139026642 7.6620273590 -0.9558054805 0.0000000000
14.3767080307 8.5091362000 0.6806257367 0.0000000000
13.5334558487 8.9304494858 -0.7552931905 0.0000000000
14.1538124084 8.3738756180 -0.8618685007 0.0000000000
13.1522254944 9.6259746552 -0.6640171409 0.0000000000
15.0477809906 7.9304389954 -0.5939894319 0.0000000000
13.6559858322 9.0010442734 -0.3805849850 0.0000000000
4.3342256546 2.5561118126 -2.3463766575 0.0000000000
14.3491601944 8.4590492249 -0.4847646654 0.0000000000
6.2604150772 4.1154527664 -2.0972962379 0.0000000000
8.1878967285 4.8249650002 -1.9007687569 0.0000000000
13.5986976624 8.9360733032 0.0000000000 0.0000000000
15.0068006516 7.8820877075 -0.1973396391 0.0000000000
8.8919734955 5.8431568146 -1.6553372145 0.0000000000
10.1508064270 5.9792819023 -1.4995614290 0.0000000000
12.9696350098 9.4576206207 0.0932928398 0.0000000000
14.2870388031 8.4123506546 -0.0963615254 0.0000000000
10.2889623642 6.7560148239 -1.3258614540 0.0000000000
12.3899650574 6.4993610382 -1.3060500622 0.0000000000
12.3507308960 8.1036596298 -1.0329538584 0.0000000000
12.4195156097 7.3039793968 -1.1762048006 0.0000000000
13.4008483887 9.7577438354 0.4824374020 0.0000000000
15.4099140167 9.0626478195 0.3120490313 0.0000000000
11.9592018127 8.7080173492 -0.9481065869 0.0000000000
14.5732736588 7.6349244118 -0.9581310749 0.0000000000
14.2429094315 9.3380603790 0.9918516874 0.0000000000
14.4343814850 8.4821529388 0.6820911765 0.0000000000
13.5948638916 8.9097909927 -0.7571544647 0.0000000000
14.2179365158 8.3516244888 -0.8641713262 0.0000000000
13.2050294876 9.6010599136 -0.6651569605 0.0000000000
13.6975793839 8.9668598175 -0.3809571862 0.0000000000
4.5027036667 2.6343309879 -2.4325907230 0.0000000000
14.4027595520 8.4230384827 -0.4855791926 0.0000000000
6.2973251343 4.1083073616 -2.1048443317 0.0000000000
8.2554817200 4.8260469437 -1.9125357866 0.0000000000
13.6432094574 8.8972902298 0.0000000000 0.0000000000
15.0661497116 7.8462834358 -0.1977587193 0.0000000000
8.9321804047 5.8250365257 -1.6590266228 0.0000000000
10.2127275467 5.9678363800 -1.5056222677 0.0000000000
13.0025691986 9.4122905731 0.0932928398 0.0000000000
14.3474006653 8.3805856705 -0.0965707600 0.0000000000
10.3058185577 6.7157158852 -1.3250046968 0.0000000000
12.4903097153 6.4965033531 -1.3142291307 0.0000000000
14.8738908768 9.6887712479 0.4130603075 0.0000000000
15.1851844788 7.8948040009 0.1992487758 0.0000000000
12.4056940079 8.0779170990 -1.0351860523 0.0000000000
12.5241365433 7.3067903519 -1.1836903095 0.0000000000
13.4542703629 9.7249603271 0.4831355810 0.0000000000
15.5623607635 9.0793409348 0.3144923747 0.0000000000
12.0057010651 8.6779108047 -0.9493857026 0.0000000000
14.6317291260 7.6005744934 -0.9602240920 0.0000000000
14.4915246964 8.4478178024 0.6833938360 0.0000000000
13.6526784897 8.8797101974 -0.7586434484 0.0000000000
14.2677106857 8.3140096664 -0.8654273748 0.0000000000
13.2579078674 9.5689411163 -0.6661339402 0.0000000000
15.2561922073 7.9114375114 -0.6001317501 0.0000000000
13.7489166260 8.9320631027 -0.3815155029 0.0000000000
4.3058056831 2.4969923496 -2.3210194111 0.0000000000
14.4557504654 8.3797054291 -0.4862773716 0.0000000000
6.3162875175 4.0861897469 -2.1059226990 0.0000000000
8.2468013763 4.7785806656 -1.9062600136 0.0000000000
13.6974258423 8.8578710556 0.0000000000 0.0000000000
15.1672573090 7.8250532150 -0.1986900121 0.0000000000
8.9611186981 5.7949891090 -1.6602565050 0.0000000000
10.2561693192 5.9405112267 -1.5086526871 0.0000000000
13.0548591614 9.3739595413 0.0934090763 0.0000000000
14.3933210373 8.3334503174 -0.0966637507 0.0000000000
10.3281888962 6.6739368439 -1.3245762587 0.0000000000
12.4832992554 6.4320788383 -1.3108831644 0.0000000000
15.3042821884 7.8822231293 0.2004128844 0.0000000000
12.4533805847 8.0410461426 -1.0365811586 0.0000000000
12.5900640488 7.2806005478 -1.1872704029 0.0000000000
13.5240068436 9.6965255737 0.4842992127 0.0000000000
15.4636430740 8.9387378693 0.3117697835 0.0000000000
12.0599069595 8.6435995102 -0.9509207010 0.0000000000
14.7034130096 7.5662627220 -0.9630147219 0.0000000000
14.5584602356 8.4121084213 0.6850221157 0.0000000000
13.7135362625 8.8445472717 -0.7601324320 0.0000000000
14.3410367966 8.2831392288 -0.8679394722 0.0000000000
13.3205499649 9.5365772247 -0.6674365997 0.0000000000
15.3575744629 7.8893327713 -0.6029236913 0.0000000000
13.8032817841 8.8921985626 -0.3820738196 0.0000000000
4.5115594864 2.5974059105 -2.4275193214 0.0000000000
14.4958667755 8.3422269821 -0.4867428243 0.0000000000
6.3355746269 4.0704903603 -2.1080794334 0.0000000000
8.3059720993 4.7780747414 -1.9164581299 0.0000000000
13.7453794479 8.8277654648 0.0000000000 0.0000000000
15.2714557648 7.8147988319 -0.1997144222 0.0000000000
9.0002422333 5.7780528069 -1.6639459133 0.0000000000
10.3194990158 5.9339747429 -1.5152187347 0.0000000000
13.0972690582 9.3421916962 0.0935020670 0.0000000000
14.4471731186 8.3041381836 -0.0968497321 0.0000000000
10.3959636688 6.6715283394 -1.3305736780 0.0000000000
12.5424518585 6.4127731323 -1.3149726391 0.0000000000
14.4598464966 9.2759304047 0.3997538090 0.0000000000
12.4920167923 8.0104980469 -1.0376973152 0.0000000000
12.6543636322 7.2648310661 -1.1911759377 0.0000000000
13.6162796021 9.6980628967 0.4865100980 0.0000000000
15.3478908539 8.8111763000 0.3089075983 0.0000000000
12.0985050201 8.6170425415 -0.9519439936 0.0000000000
14.7591190338 7.5363774300 -0.9651077390 0.0000000000
14.6194839478 8.3862161636 0.6866503954 0.0000000000
13.7614421844 8.8143520355 -0.7612491846 0.0000000000
14.3947105408 8.2539405823 -0.8696142435 0.0000000000
13.3732433319 9.5108966827 -0.6685763597 0.0000000000
16.5896453857 8.4564933777 -0.6502473950 0.0000000000
13.8428001404 8.8528404236 -0.3823529780 0.0000000000
4.4891180992 2.5636639595 -2.4106144905 0.0000000000
14.5457324982 8.3034696579 -0.4874410033 0.0000000000
6.3757286072 4.0649166107 -2.1167056561 0.0000000000
8.2919397354 4.7315568924 -1.9093979597 0.0000000000
13.7929763794 8.7904796600 0.0000000000 0.0000000000
9.0003557205 5.7338590622 -1.6602565050 0.0000000000
10.3332557678 5.8939852715 -1.5142085552 0.0000000000
13.1461219788 9.3079738617 0.0936183035 0.0000000000
14.4934463501 8.2635631561 -0.0969659686 0.0000000000
10.4393157959 6.6480164528 -1.3331440687 0.0000000000
12.6500167847 6.4121685028 -1.3238953352 0.0000000000
12.5535669327 7.9882664680 -1.0404875278 0.0000000000
12.6727170944 7.2166690826 -1.1905249357 0.0000000000
15.2603912354 8.6902589798 0.3065340519 0.0000000000
12.1578464508 8.5954980850 -0.9542464614 0.0000000000
14.8209629059 7.5028481483 -0.9674333334 0.0000000000
14.7007741928 8.3647823334 0.6890928149 0.0000000000
13.8191032410 8.7834091187 -0.7627381682 0.0000000000
14.4442672729 8.2154922485 -0.8708702922 0.0000000000
13.4357461929 9.4849023819 -0.6700418591 0.0000000000
16.6725807190 8.4255790710 -0.6523413658 0.0000000000
13.8889617920 8.8176040649 -0.3828182220 0.0000000000
4.5421996117 2.5729935169 -2.4342811108 0.0000000000
13.2275028229 9.3067951202 -0.2823101282 0.0000000000
14.6024618149 8.2684059143 -0.4883718789 0.0000000000
6.3736028671 4.0323390961 -2.1113142967 0.0000000000
8.2606163025 4.6755356789 -1.8984153271 0.0000000000
13.8371000290 8.7508316040 0.0000000000 0.0000000000
18.8972244263 9.5084466934 -0.2462787628 0.0000000000
9.0226612091 5.7060937881 -1.6608713865 0.0000000000
10.3744878769 5.8696031570 -1.5172389746 0.0000000000
13.1883506775 9.2689285278 0.0936880484 0.0000000000
14.5396118164 8.2227668762 -0.0970822051 0.0000000000
10.4456481934 6.6009130478 -1.3310021162 0.0000000000
12.7185850143 6.3912200928 -1.3287284374 0.0000000000
14.2368774414 8.9932260513 0.3918443322 0.0000000000
22.4959144592 11.2995109558 0.2930759192 0.0000000000
12.5881223679 7.9486584663 -1.0410456657 0.0000000000
12.8054399490 7.2331724167 -1.2006142139 0.0000000000
15.2035760880 8.5877628326 0.3047888279 0.0000000000
12.2073812485 8.5667657852 -0.9557814598 0.0000000000
14.8649072647 7.4600234032 -0.9685961008 0.0000000000
14.3800706863 9.0731487274 0.9902238250 0.0000000000
14.8064556122 8.3566331863 0.6926751137 0.0000000000
13.8834753036 8.7564334869 -0.7645994425 0.0000000000
14.5006895065 8.1807250977 -0.8725450635 0.0000000000
13.4916849136 9.4539995193 -0.6711816192 0.0000000000
16.7412052155 8.3870258331 -0.6538769603 0.0000000000
13.9414892197 8.7794246674 -0.3833765388 0.0000000000
4.5642433167 2.5634291172 -2.4410431385 0.0000000000
13.2746419907 9.2674093246 -0.2825893760 0.0000000000
14.6640472412 8.2324457169 -0.4894191325 0.0000000000
6.3981275558 4.0150942802 -2.1145491600 0.0000000000
8.3187446594 4.6682615280 -1.9078290462 0.0000000000
13.8826341629 8.7085599899 0.0000000000 0.0000000000
19.0572299957 9.5015850067 -0.2479085028 0.0000000000
9.0502109528 5.6771864891 -1.6621011496 0.0000000000
10.3993921280 5.8334803581 -1.5177440643 0.0000000000
13.2320775986 9.2273921967 0.0937577933 0.0000000000
14.5870962143 8.1792020798 -0.0971984416 0.0000000000
10.4529228210 6.5520224571 -1.3288601637 0.0000000000
12.7240982056 6.3356852531 -1.3268694878 0.0000000000
19.1820240021 9.5470895767 0.2494451255 0.0000000000
12.6509885788 7.9236478806 -1.0438358784 0.0000000000
12.8666486740 7.2056694031 -1.2038687468 0.0000000000
13.2954797745 9.2578163147 0.4714993834 0.0000000000
15.0255823135 8.4147300720 0.3006002605 0.0000000000
12.2583532333 8.5356521606 -0.9573164582 0.0000000000
14.9279050827 7.4232707024 -0.9709216356 0.0000000000
14.4673891068 9.0542783737 0.9939447045 0.0000000000
14.8823261261 8.3276805878 0.6947918534 0.0000000000
13.9391880035 8.7203226089 -0.7659022808 0.0000000000
14.5654382706 8.1470222473 -0.8746384978 0.0000000000
13.5492153168 9.4204568863 -0.6723214388 0.0000000000
16.8112201691 8.3451623917 -0.6554125547 0.0000000000
13.9871406555 8.7367410660 -0.3837487698 0.0000000000
4.5473852158 2.5341615677 -2.4275193214 0.0000000000
13.3151617050 9.2301731110 -0.2827987969 0.0000000000
14.6877737045 8.1818265915 -0.4893027842 0.0000000000
6.3950595856 3.9836719036 -2.1091575623 0.0000000000
8.3581676483 4.6540069580 -1.9133203030 0.0000000000
13.9318094254 8.6751613617 0.0000000000 0.0000000000
18.9882431030 9.3886985779 -0.2466047108 0.0000000000
9.0924730301 5.6617684364 -1.6664055586 0.0000000000
10.4325485229 5.8066816330 -1.5197643042 0.0000000000
13.2724695206 9.1902933121 0.0938275382 0.0000000000
14.6281204224 8.1385641098 -0.0972914323 0.0000000000
10.5252437592 6.5488386154 -1.3352860212 0.0000000000
12.7450389862 6.2934556007 -1.3268694878 0.0000000000
14.2517747879 8.8640480042 0.3905415833 0.0000000000
12.6941385269 7.8921861649 -1.0452309847 0.0000000000
12.7963819504 7.1106781960 -1.1950813532 0.0000000000
13.3326845169 9.2182245255 0.4717321098 0.0000000000
14.8191776276 8.2347030640 0.2959229946 0.0000000000
12.3030080795 8.5063056946 -0.9585955739 0.0000000000
14.9882535934 7.3913888931 -0.9732472301 0.0000000000
14.9727563858 8.3132038116 0.6977227926 0.0000000000
14.0019731522 8.6951303482 -0.7677635550 0.0000000000
14.6273012161 8.1180601120 -0.8767319322 0.0000000000
13.6066923141 9.3936395645 -0.6736240983 0.0000000000
16.8674926758 8.3034925461 -0.6565293074 0.0000000000
14.0330286026 8.7008466721 -0.3842140138 0.0000000000
4.3186564445 2.3859937191 -2.3007338047 0.0000000000
13.3620834351 9.1903743744 -0.2830780447 0.0000000000
6.4227252007 3.9683046341 -2.1134707928 0.0000000000
8.3786029816 4.6252369881 -1.9141047001 0.0000000000
13.9805278778 8.6345500946 0.0000000000 0.0000000000
19.1985282898 9.4052619934 -0.2488863617 0.0000000000
9.1131639481 5.6284046173 -1.6664055586 0.0000000000
10.4815540314 5.7837419510 -1.5238049030 0.0000000000
13.3225488663 9.1529102325 0.0939437747 0.0000000000
14.6788663864 8.0964860916 -0.0974309221 0.0000000000
10.5796346664 6.5290150642 -1.3391414881 0.0000000000
12.8431463242 6.2834563255 -1.3346768618 0.0000000000
12.7433576584 7.8581733704 -1.0469051600 0.0000000000
12.9271154404 7.1214394569 -1.2048450708 0.0000000000
14.8527631760 8.1822624207 0.2959928215 0.0000000000
12.3505611420 8.4724464417 -0.9598747492 0.0000000000
15.0475349426 7.3521819115 -0.9753401875 0.0000000000
15.0836553574 8.3025970459 0.7014678717 0.0000000000
14.0643672943 8.6626110077 -0.7694386840 0.0000000000
14.6954545975 8.0855760574 -0.8790346980 0.0000000000
13.6707057953 9.3640327454 -0.6750895381 0.0000000000
16.9481163025 8.2661485672 -0.6584836841 0.0000000000
14.0886697769 8.6640176773 -0.3848654032 0.0000000000
4.3197736740 2.3689281940 -2.2973527908 0.0000000000
13.4074020386 9.1596317291 -0.2834270895 0.0000000000
14.7922105789 8.1085681915 -0.4909318388 0.0000000000
6.4581432343 3.9622080326 -2.1210188866 0.0000000000
8.3690137863 4.5856986046 -1.9086134434 0.0000000000
14.0075855255 8.5905866623 0.0000000000 0.0000000000
19.3071231842 9.3833656311 -0.2499107718 0.0000000000
9.1375398636 5.6038799286 -1.6676353216 0.0000000000
10.5275135040 5.7660336494 -1.5278455019 0.0000000000
13.3710613251 9.1245393753 0.0940832570 0.0000000000
14.7393150330 8.0695390701 -0.0976633951 0.0000000000
10.5627937317 6.4728884697 -1.3344292641 0.0000000000
12.8484916687 6.2361211777 -1.3331897259 0.0000000000
12.7815942764 7.8264350891 -1.0480213165 0.0000000000
12.9739103317 7.0941815376 -1.2071232796 0.0000000000
13.4413795471 9.1587781906 0.4733611643 0.0000000000
12.3969097137 8.4470901489 -0.9614097476 0.0000000000
15.1136789322 7.3257732391 -0.9781308770 0.0000000000
14.1187820435 8.6350622177 -0.7709276676 0.0000000000
14.7523355484 8.0565996170 -0.8809188008 0.0000000000
13.7297964096 9.3412723541 -0.6765549779 0.0000000000
17.0099849701 8.2302742004 -0.6598796844 0.0000000000
14.1382017136 8.6367702484 -0.3855167627 0.0000000000
4.4940476418 2.4431164265 -2.3852574825 0.0000000000
13.4607467651 9.1238927841 -0.2838459313 0.0000000000
14.8745269775 8.0829334259 -0.4926772714 0.0000000000
6.4528779984 3.9264972210 -2.1145491600 0.0000000000
8.4029979706 4.5643548965 -1.9125357866 0.0000000000
14.0663175583 8.5558176041 0.0000000000 0.0000000000
19.1952438354 9.2380475998 -0.2480016351 0.0000000000
9.1556119919 5.5666995049 -1.6670204401 0.0000000000
10.5555505753 5.7311964035 -1.5288556814 0.0000000000
13.4176626205 9.0844411850 0.0941762477 0.0000000000
14.7793388367 8.0211868286 -0.0977331400 0.0000000000
10.6408243179 6.4671788216 -1.3412834406 0.0000000000
12.9107437134 6.2079720497 -1.3372792006 0.0000000000
14.1524276733 8.5980463028 0.3853306472 0.0000000000
12.8374776840 7.7961053848 -1.0502535105 0.0000000000
13.0453882217 7.0712800026 -1.2113542557 0.0000000000
14.8602943420 8.0516986847 0.2950154841 0.0000000000
12.4490976334 8.4128379822 -0.9629446864 0.0000000000
15.1764249802 7.2876152992 -0.9804564714 0.0000000000
18.4397926331 9.9870023727 0.8543643951 0.0000000000
14.1810827255 8.6019058228 -0.7726027966 0.0000000000
14.8133802414 8.0195913315 -0.8828029037 0.0000000000
13.7838172913 9.3043041229 -0.6775319576 0.0000000000
17.0905036926 8.1920652390 -0.6618340611 0.0000000000
14.1868629456 8.5952539444 -0.3859820366 0.0000000000
4.5567960739 2.4566602707 -2.4139955044 0.0000000000
6.4830327034 3.9139025211 -2.1199407578 0.0000000000
8.4534111023 4.5535964966 -1.9203804731 0.0000000000
14.1063709259 8.5128650665 0.0000000000 0.0000000000
20.3031826019 9.6841211319 -0.2618778050 0.0000000000
9.1817569733 5.5387897491 -1.6682503223 0.0000000000
10.5894670486 5.7018404007 -1.5308759212 0.0000000000
13.4559316635 9.0420112610 0.0942227468 0.0000000000
14.8319034576 7.9828186035 -0.0978958756 0.0000000000
10.6837682724 6.4423179626 -1.3438537121 0.0000000000
12.9395256042 6.1662936211 -1.3380228281 0.0000000000
14.3330488205 8.6394252777 0.3894249797 0.0000000000
23.1067733765 11.0065183640 0.2979651690 0.0000000000
12.8885383606 7.7656617165 -1.0522066355 0.0000000000
13.1015958786 7.0426888466 -1.2142833471 0.0000000000
14.7350482941 9.8866167068 0.5164151788 0.0000000000
14.9291849136 8.0250988007 0.2958531976 0.0000000000
12.4968156815 8.3848533630 -0.9644796848 0.0000000000
15.2306165695 7.2483229637 -0.9823169112 0.0000000000
14.2212934494 8.5585336685 -0.7731611729 0.0000000000
14.8799972534 7.9886183739 -0.8851056695 0.0000000000
13.8427743912 9.2739286423 -0.6788346171 0.0000000000
17.1623249054 8.1529426575 -0.6635092497 0.0000000000
14.2270622253 8.5518608093 -0.3862611651 0.0000000000
4.6256551743 2.4740214348 -2.4461145401 0.0000000000
13.5524702072 9.0520505905 -0.2844742239 0.0000000000
6.5224094391 3.9082212448 -2.1285669804 0.0000000000
8.5030584335 4.5440254211 -1.9282251596 0.0000000000
14.1654071808 8.4845380783 0.0000000000 0.0000000000
9.2160654068 5.5200715065 -1.6713248491 0.0000000000
10.6258163452 5.6760411263 -1.5334012508 0.0000000000
13.4991521835 9.0062198639 0.0943157375 0.0000000000
14.8829927444 7.9467782974 -0.0980586112 0.0000000000
10.7323732376 6.4231925011 -1.3472808599 0.0000000000
13.0427255630 6.1624832153 -1.3465737104 0.0000000000
23.2480297089 10.9793663025 0.2993155420 0.0000000000
12.9313421249 7.7331190109 -1.0536017418 0.0000000000
13.1565389633 7.0160870552 -1.2172125578 0.0000000000
14.7843904495 9.8487825394 0.5169969797 0.0000000000
14.9768886566 7.9868392944 0.2962720394 0.0000000000
12.5444850922 8.3566455841 -0.9660146832 0.0000000000
15.2870721817 7.2131128311 -0.9844099283 0.0000000000
18.5637817383 9.8913269043 0.8569696546 0.0000000000
14.2838993073 8.5318164825 -0.7750223875 0.0000000000
14.9487142563 7.9617638588 -0.8876178265 0.0000000000
13.9067296982 9.2501087189 -0.6804628968 0.0000000000
17.2218170166 8.1113157272 -0.6647655964 0.0000000000
14.2690792084 8.5128307343 -0.3866333961 0.0000000000
4.5129790306 2.3925256729 -2.3818764687 0.0000000000
13.5988922119 9.0111541748 -0.2847534716 0.0000000000
15.0042819977 7.9510655403 -0.4941899776 0.0000000000
6.5631809235 3.9000310898 -2.1371934414 0.0000000000
8.5127239227 4.5091576576 -1.9266562462 0.0000000000
14.2067260742 8.4386911392 0.0000000000 0.0000000000
20.4301986694 9.5745534897 -0.2626694143 0.0000000000
9.2328376770 5.4842376709 -1.6707099676 0.0000000000
10.6746025085 5.6519112587 -1.5374418497 0.0000000000
13.5454120636 8.9655132294 0.0944087282 0.0000000000
14.9509077072 7.9127578735 -0.0983143300 0.0000000000
10.7661027908 6.3899030685 -1.3485660553 0.0000000000
13.1229391098 6.1416487694 -1.3525221348 0.0000000000
15.6208047867 9.2675809860 0.4226447344 0.0000000000
23.3931789398 10.9432334900 0.3006658852 0.0000000000
12.9870548248 7.7019548416 -1.0558339357 0.0000000000
13.2103624344 6.9827232361 -1.2198162079 0.0000000000
14.8137168884 9.7901191711 0.5167642236 0.0000000000
15.0484914780 7.9543199539 0.2971097529 0.0000000000
