VERSION 0.7
FIELDS x y z rgb
SIZE 4 4 4 4
TYPE F F F F
COUNT 1 1 1 1
WIDTH 875
HEIGHT 1
VIEWPOINT 0.0 0.0 0.0 1.0 0.0 0.0 0.0
POINTS 875
DATA ascii
-6.2917542458 22.6873321533 -0.1368356943 0.0000000000
-4.5254564285 13.6837158203 -1.5524787903 0.0000000000
-3.1680133343 14.0690326691 -1.3462018967 0.0000000000
-9.6017541885 29.0500297546 0.7119451165 0.0000000000
-5.4644427299 24.2871704102 0.2898164093 0.0000000000
-5.5195026398 16.7089958191 -1.2305041552 0.0000000000
-4.2450833321 15.3384580612 -1.2992279530 0.0000000000
-12.2224197388 31.7245903015 0.9894272685 0.0000000000
-7.2924575806 26.3493194580 0.4772185981 0.0000000000
-6.7994508743 17.6486968994 -1.2121232748 0.0000000000
-3.7037513256 16.4885044098 -0.9841773510 0.0000000000
-6.0650434494 18.3928222656 -0.9021454453 0.0000000000
-4.9036002159 17.7539863586 -0.9652843475 0.0000000000
-7.4049658775 19.2604465485 -0.8406867385 0.0000000000
-4.1687531471 18.6193981171 -0.6663011909 0.0000000000
-6.8119215965 20.7063961029 -0.5072295070 0.0000000000
-1.2996331453 4.7409043312 -2.2922813892 0.0000000000
-8.3406963348 21.8078556061 -0.4075486064 0.0000000000
-5.4446425438 19.8750000000 -0.5997304320 0.0000000000
-2.5552866459 7.8086781502 -2.3000168800 0.0000000000
-2.6595628262 9.7150621414 -2.0145168304 0.0000000000
-7.7934389114 23.8299713135 0.0000000000 0.0000000000
-4.6808385849 21.1138992310 -0.2517733574 0.0000000000
-3.6948535442 11.3044185638 -1.8502635956 0.0000000000
-3.4290697575 12.5345678329 -1.6541137695 0.0000000000
-9.6075057983 25.1595706940 0.1565264612 0.0000000000
-6.1937913895 22.6562232971 -0.1365102232 0.0000000000
-4.4604535103 13.6548452377 -1.5473381281 0.0000000000
-3.0888855457 13.9561147690 -1.3343050480 0.0000000000
-9.3835229874 28.7428951263 0.7035704255 0.0000000000
-5.3719344139 24.2914142609 0.2896301448 0.0000000000
-5.3963394165 16.5394420624 -1.2165528536 0.0000000000
-4.1982803345 15.3885297775 -1.3021570444 0.0000000000
-12.0747394562 31.6869773865 0.9868672490 0.0000000000
-7.1674122810 26.2716941833 0.4753337502 0.0000000000
-6.7304553986 17.6623096466 -1.2113558054 0.0000000000
-3.6338231564 16.4590759277 -0.9816192389 0.0000000000
-5.9765539169 18.3503417969 -0.8989813328 0.0000000000
-4.8248543739 17.7217350006 -0.9625629187 0.0000000000
-7.3286409378 19.2725162506 -0.8400354385 0.0000000000
-4.0875954628 18.5759906769 -0.6642072201 0.0000000000
-6.7111639977 20.6425800323 -0.5050892830 0.0000000000
-1.2868613005 4.7594103813 -2.2990434170 0.0000000000
-8.2333784103 21.7545471191 -0.4060127735 0.0000000000
-5.3585457802 19.8321266174 -0.5978686810 0.0000000000
-2.5268285275 7.8138852119 -2.2989387512 0.0000000000
-2.6225674152 9.7129259109 -2.0121634007 0.0000000000
-7.6880674362 23.7885189056 0.0000000000 0.0000000000
-4.5988583565 21.0745964050 -0.2511214316 0.0000000000
-3.6476225853 11.2865219116 -1.8453443050 0.0000000000
-3.3770256042 12.5158128738 -1.6500731707 0.0000000000
-9.4899320602 25.1143779755 0.1560382545 0.0000000000
-6.0948834419 22.6043281555 -0.1360685229 0.0000000000
-4.3822197914 13.5757141113 -1.5366284847 0.0000000000
-3.0274448395 13.9084386826 -1.3287284374 0.0000000000
-9.2598066330 28.7031650543 0.7018024325 0.0000000000
-5.2811589241 24.2826595306 0.2893041968 0.0000000000
-5.3238797188 16.5126037598 -1.2132046223 0.0000000000
-4.0917091370 15.2067499161 -1.2855587006 0.0000000000
-11.9019870758 31.5643215179 0.9817473292 0.0000000000
-7.0652718544 26.2579326630 0.4746356308 0.0000000000
-6.6560859680 17.6520805359 -1.2090532780 0.0000000000
-3.5712645054 16.4482479095 -0.9802238941 0.0000000000
-5.9014458656 18.3368606567 -0.8973062038 0.0000000000
-4.7515702248 17.6960334778 -0.9602601528 0.0000000000
-7.2388024330 19.2381286621 -0.8374301791 0.0000000000
-4.0159645081 18.5588893890 -0.6630904078 0.0000000000
-6.6330151558 20.6594238281 -0.5049031973 0.0000000000
-1.2683720589 4.7568678856 -2.2956624031 0.0000000000
-8.1349487305 21.7232284546 -0.4048958421 0.0000000000
-5.2728152275 19.7888946533 -0.5960068703 0.0000000000
-2.4960205555 7.8116502762 -2.2957038879 0.0000000000
-2.5866284370 9.7144412994 -2.0105943680 0.0000000000
-7.5842976570 23.7504329681 0.0000000000 0.0000000000
-4.5093235970 21.0162181854 -0.2502367198 0.0000000000
-3.6009891033 11.2765941620 -1.8416548967 0.0000000000
-3.3282151222 12.5083522797 -1.6475478411 0.0000000000
-9.3559827805 25.0237121582 0.1552710831 0.0000000000
-4.3348050117 13.5909290314 -1.5366284847 0.0000000000
-2.9788768291 13.9189224243 -1.3287284374 0.0000000000
-9.1061201096 28.5676708221 0.6977081299 0.0000000000
-5.1754550934 24.2031631470 0.2881400883 0.0000000000
-5.2419838905 16.4550476074 -1.2076240778 0.0000000000
-4.0212211609 15.1554327011 -1.2800258398 0.0000000000
-11.7484083176 31.4895458221 0.9781401157 0.0000000000
-6.9438266754 26.1703319550 0.4726111591 0.0000000000
-6.5748929977 17.6228466034 -1.2054717541 0.0000000000
-3.5004892349 16.3981285095 -0.9765030146 0.0000000000
-5.8289265633 18.3306941986 -0.8960033059 0.0000000000
-4.6877255440 17.7047882080 -0.9598414302 0.0000000000
-7.1646327972 19.2445526123 -0.8366160393 0.0000000000
-3.9153890610 18.4046611786 -0.6570877433 0.0000000000
-6.5439319611 20.6290874481 -0.5036004782 0.0000000000
-1.2655040026 4.8101305962 -2.3193290234 0.0000000000
-8.0447959900 21.7013359070 -0.4039883018 0.0000000000
-5.1959810257 19.7637348175 -0.5947268605 0.0000000000
-2.4666216373 7.8088655472 -2.2924687862 0.0000000000
-2.5484201908 9.7002038956 -2.0058877468 0.0000000000
-7.4838218689 23.7067928314 0.0000000000 0.0000000000
-4.4280405045 20.9762668610 -0.2495848238 0.0000000000
-3.5588154793 11.2733974457 -1.8391952515 0.0000000000
-3.2806723118 12.4962921143 -1.6445173025 0.0000000000
-9.2493467331 24.9908275604 0.1548758745 0.0000000000
-5.9124603271 22.5369586945 -0.1354175955 0.0000000000
-4.2849283218 13.5900573730 -1.5349148512 0.0000000000
-2.9392681122 13.9599018097 -1.3317025900 0.0000000000
-8.9632635117 28.4451484680 0.6939859986 0.0000000000
-5.0786981583 24.1419124603 0.2872087955 0.0000000000
-5.1897850037 16.4799518585 -1.2081820965 0.0000000000
-3.9961831570 15.2651033401 -1.2881623507 0.0000000000
-11.6065206528 31.4270629883 0.9749983549 0.0000000000
-6.8387732506 26.1235733032 0.4713546038 0.0000000000
-6.4707803726 17.5209808350 -1.1970293522 0.0000000000
-3.4444503784 16.4018306732 -0.9760378599 0.0000000000
-5.7537293434 18.3041801453 -0.8937698007 0.0000000000
-4.6158638000 17.6699924469 -0.9571199417 0.0000000000
-7.0924839973 19.2457046509 -0.8356390595 0.0000000000
-3.8338639736 18.3197231293 -0.6535977721 0.0000000000
-6.4539504051 20.5819911957 -0.5019255280 0.0000000000
-1.2241321802 4.7197723389 -2.2736861706 0.0000000000
-7.9497160912 21.6767177582 -0.4030109644 0.0000000000
-5.1199388504 19.7546596527 -0.5939123631 0.0000000000
-2.4359064102 7.8063969612 -2.2892339230 0.0000000000
-2.5145447254 9.7090406418 -2.0058877468 0.0000000000
-7.3819708824 23.6716728210 0.0000000000 0.0000000000
-4.3434181213 20.9367675781 -0.2489329278 0.0000000000
-3.5135588646 11.2668848038 -1.8361207247 0.0000000000
-3.2340495586 12.4961442947 -1.6430021524 0.0000000000
-9.1400518417 24.9628658295 0.1545039117 0.0000000000
-5.8157286644 22.4877529144 -0.1349991262 0.0000000000
-4.2362813950 13.6011343002 -1.5344865322 0.0000000000
-2.8929419518 13.9817771912 -1.3328179121 0.0000000000
-8.8377695084 28.3922634125 0.6919388175 0.0000000000
-4.9798212051 24.0889892578 0.2863706350 0.0000000000
-5.1251163483 16.4751071930 -1.2065079212 0.0000000000
-3.9279310703 15.2210559845 -1.2832804918 0.0000000000
-11.4418649673 31.3171653748 0.9703438282 0.0000000000
-6.7205615044 26.0427284241 0.4694697261 0.0000000000
-6.4013624191 17.5209655762 -1.1954942942 0.0000000000
-3.3847553730 16.4020214081 -0.9753401875 0.0000000000
-5.6743974686 18.2745456696 -0.8913502097 0.0000000000
-4.5352301598 17.6124992371 -0.9531424642 0.0000000000
-7.0074648857 19.2215309143 -0.8335222602 0.0000000000
-3.7731137276 18.3486576080 -0.6541561484 0.0000000000
-6.3513040543 20.5050773621 -0.4995061457 0.0000000000
-1.2210530043 4.7729754448 -2.2973527908 0.0000000000
-7.8545918465 21.6390495300 -0.4018242061 0.0000000000
-5.0385575294 19.7095489502 -0.5920505524 0.0000000000
-2.4100062847 7.8144316673 -2.2892339230 0.0000000000
-2.4794220924 9.7059249878 -2.0035343170 0.0000000000
-7.2834033966 23.6310386658 0.0000000000 0.0000000000
-4.2627730370 20.8961887360 -0.2482810169 0.0000000000
-3.4703564644 11.2595891953 -1.8330460787 0.0000000000
-3.1837601662 12.4721975327 -1.6384564638 0.0000000000
-9.0653991699 25.0156002045 0.1546434015 0.0000000000
-5.7262945175 22.4487781525 -0.1346504092 0.0000000000
-4.1946654320 13.6265106201 -1.5357717276 0.0000000000
-2.8481488228 13.9990987778 -1.3335615396 0.0000000000
-8.7224035263 28.3526153564 0.6902638674 0.0000000000
-4.8847737312 24.0308971405 0.2854859233 0.0000000000
-5.0599007607 16.4576854706 -1.2039967775 0.0000000000
-3.8794012070 15.2417249680 -1.2839313745 0.0000000000
-11.2930831909 31.2308559418 0.9665039182 0.0000000000
-6.5947036743 25.9098377228 0.4666773379 0.0000000000
-6.3364381790 17.5233268738 -1.1942151785 0.0000000000
-5.5985269547 18.2436046600 -0.8889305592 0.0000000000
-4.4325532913 17.4532203674 -0.9437219501 0.0000000000
-6.9097743034 19.1506767273 -0.8294515610 0.0000000000
-3.7074933052 18.3375587463 -0.6533185840 0.0000000000
-6.2646017075 20.4522819519 -0.4977381527 0.0000000000
-1.2026653290 4.7739033699 -2.2956624031 0.0000000000
-7.7536149025 21.6074638367 -0.4007072449 0.0000000000
-4.9653086662 19.7240066528 -0.5919342041 0.0000000000
-2.3779835701 7.8121571541 -2.2859990597 0.0000000000
-2.4400038719 9.6997318268 -2.0003962517 0.0000000000
-7.1746234894 23.5848655701 0.0000000000 0.0000000000
-4.1691708565 20.8457279205 -0.2474894226 0.0000000000
-3.4213490486 11.2539234161 -1.8299715519 0.0000000000
-3.1302871704 12.4529962540 -1.6344158649 0.0000000000
-8.9507179260 24.9846439362 0.1542481929 0.0000000000
-5.6283860207 22.4075450897 -0.1342784464 0.0000000000
-4.1273517609 13.5847148895 -1.5293458700 0.0000000000
-2.8007190228 14.0289716721 -1.3354203701 0.0000000000
-8.5696306229 28.2236843109 0.6863557100 0.0000000000
-4.7849278450 23.9898033142 0.2847874463 0.0000000000
-4.9879598618 16.4379367828 -1.2012064457 0.0000000000
-3.8070349693 15.1900997162 -1.2783986330 0.0000000000
-11.1422023773 31.1703815460 0.9633620977 0.0000000000
-6.4883675575 25.9078121185 0.4661886692 0.0000000000
-6.2341890335 17.4497909546 -1.1875635386 0.0000000000
-3.2179243565 16.1628551483 -0.9597589374 0.0000000000
-5.4876108170 18.1186847687 -0.8818578720 0.0000000000
-4.3598327637 17.4344730377 -0.9418378472 0.0000000000
-6.8301382065 19.1495227814 -0.8283117414 0.0000000000
-3.6239235401 18.2686805725 -0.6503870487 0.0000000000
-6.1745553017 20.4253444672 -0.4965284765 0.0000000000
-1.1815842390 4.7567553520 -2.2855195999 0.0000000000
-7.6631832123 21.5802936554 -0.3997299075 0.0000000000
-4.8632717133 19.5929031372 -0.5875124335 0.0000000000
-2.3476266861 7.8052453995 -2.2816858292 0.0000000000
-2.4040482044 9.6925420761 -1.9972585440 0.0000000000
-7.0756478310 23.5395755768 0.0000000000 0.0000000000
-4.0892214775 20.8044929504 -0.2468375266 0.0000000000
-3.3783252239 11.2462806702 -1.8268970251 0.0000000000
-3.0794286728 12.4247941971 -1.6293652058 0.0000000000
-8.8517780304 24.9689483643 0.1539692134 0.0000000000
-5.5386638641 22.3639640808 -0.1339064986 0.0000000000
-4.0697021484 13.5564270020 -1.5246335268 0.0000000000
-2.7564821243 14.0499067307 -1.3365356922 0.0000000000
-8.4518585205 28.1715126038 0.6844015718 0.0000000000
-4.6899614334 23.9270381927 0.2838561833 0.0000000000
-4.9242548943 16.4238090515 -1.1989742517 0.0000000000
-3.7442090511 15.1523265839 -1.2741676569 0.0000000000
-10.9814434052 31.0450744629 0.9583585262 0.0000000000
-6.3954310417 25.8814754486 0.4653509557 0.0000000000
-6.1633639336 17.4241294861 -1.1844936609 0.0000000000
-3.1543412209 16.1224918365 -0.9567357302 0.0000000000
-5.4274969101 18.1367835999 -0.8818578720 0.0000000000
-4.2838258743 17.3751449585 -0.9378603101 0.0000000000
-6.7346744537 19.0816154480 -0.8244038224 0.0000000000
-3.5556743145 18.2413597107 -0.6489910483 0.0000000000
-6.0838994980 20.3690738678 -0.4946674109 0.0000000000
-1.1641111374 4.7573294640 -2.2838289738 0.0000000000
-7.5599789619 21.5276679993 -0.3982639015 0.0000000000
-4.7777562141 19.5398483276 -0.5854179263 0.0000000000
-2.3159806728 7.7986226082 -2.2773725986 0.0000000000
-2.3664762974 9.6856336594 -1.9941205978 0.0000000000
-6.9775032997 23.5104446411 0.0000000000 0.0000000000
-4.0080747604 20.7551040649 -0.2460924983 0.0000000000
-3.3331408501 11.2308979034 -1.8225926161 0.0000000000
-3.0322749615 12.4200487137 -1.6273448467 0.0000000000
-8.7341289520 24.9128761292 0.1534345150 0.0000000000
-5.4435009956 22.3132133484 -0.1334880292 0.0000000000
-4.0087943077 13.5247936249 -1.5194929838 0.0000000000
-2.7029032707 14.0359783173 -1.3343050480 0.0000000000
-8.2989540100 28.0167999268 0.6799350381 0.0000000000
-4.5950775146 23.8843479156 0.2831577063 0.0000000000
-4.8736906052 16.4638557434 -1.2006484270 0.0000000000
-3.6780946255 15.1110725403 -1.2696112394 0.0000000000
-10.8136005402 30.9133834839 0.9531222582 0.0000000000
-6.3050489426 25.9036426544 0.4653509557 0.0000000000
-6.0748262405 17.3664112091 -1.1791212559 0.0000000000
-3.0875012875 16.0785007477 -0.9534799457 0.0000000000
-5.3618903160 18.1479549408 -0.8814855814 0.0000000000
-4.1137995720 16.9397163391 -0.9135764241 0.0000000000
-6.6509051323 19.0559520721 -0.8222870827 0.0000000000
-3.4814624786 18.1986904144 -0.6470366716 0.0000000000
-6.0003194809 20.3479938507 -0.4936438203 0.0000000000
-1.1517593861 4.7827115059 -2.2939720154 0.0000000000
-7.4613556862 21.4985580444 -0.3972167671 0.0000000000
-4.6883339882 19.4833698273 -0.5832070112 0.0000000000
-2.2852156162 7.7996654510 -2.2752161026 0.0000000000
-2.3282098770 9.6828012466 -1.9917671680 0.0000000000
-6.8676819801 23.4552459717 0.0000000000 0.0000000000
-3.9200727940 20.7067775726 -0.2453474700 0.0000000000
-3.2852914333 11.2202796936 -1.8189032078 0.0000000000
-2.9820978642 12.4117879868 -1.6248195171 0.0000000000
-8.6191892624 24.8766899109 0.1530160606 0.0000000000
-5.3523449898 22.2941207886 -0.1332555562 0.0000000000
-3.9580802917 13.5355787277 -1.5190645456 0.0000000000
-2.6447918415 14.0105686188 -1.3309590816 0.0000000000
-8.1513442993 27.8934936523 0.6762129664 0.0000000000
-4.4956459999 23.8381423950 0.2824126780 0.0000000000
-4.7540292740 16.2786045074 -1.1858600378 0.0000000000
-3.6143271923 15.0895586014 -1.2666821480 0.0000000000
-10.6597280502 30.8356647491 0.9495150447 0.0000000000
-6.1373996735 25.6232070923 0.4599058032 0.0000000000
-6.0046133995 17.3696975708 -1.1778420210 0.0000000000
-3.0182085037 16.0347690582 -0.9502241611 0.0000000000
-5.2696223259 18.0792560577 -0.8772047162 0.0000000000
-4.0488996506 16.9430236816 -0.9129484296 0.0000000000
-6.5627722740 19.0273056030 -0.8200074434 0.0000000000
-3.3977928162 18.1209602356 -0.6438258886 0.0000000000
-5.9167637825 20.3391323090 -0.4928994179 0.0000000000
-1.1308753490 4.7690653801 -2.2855195999 0.0000000000
-7.3706889153 21.4790782928 -0.3963790536 0.0000000000
-4.6110773087 19.4607105255 -0.5820434093 0.0000000000
-2.2558355331 7.8001942635 -2.2730593681 0.0000000000
-2.2907817364 9.6756019592 -1.9886293411 0.0000000000
-6.7691073418 23.4214344025 0.0000000000 0.0000000000
-3.8368146420 20.6613464355 -0.2446490079 0.0000000000
-3.2406182289 11.2126941681 -1.8158286810 0.0000000000
-2.9332733154 12.3989534378 -1.6217890978 0.0000000000
-8.5141525269 24.8536491394 0.1526905894 0.0000000000
-5.2616086006 22.2581710815 -0.1329300851 0.0000000000
-3.9074995518 13.5378494263 -1.5177793503 0.0000000000
-2.5915191174 13.9962186813 -1.3287284374 0.0000000000
-8.0328702927 27.8487739563 0.6744449735 0.0000000000
-4.4036779404 23.8064937592 0.2818539143 0.0000000000
-4.7126502991 16.3487777710 -1.1897664070 0.0000000000
-3.5579724312 15.0865621567 -1.2653802633 0.0000000000
-9.8291606903 28.7577552795 0.8844686151 0.0000000000
-6.0654611588 25.7389545441 0.4615812600 0.0000000000
-5.9215540886 17.3349246979 -1.1740045547 0.0000000000
-2.9520688057 15.9902305603 -0.9469683766 0.0000000000
-5.1921210289 18.0476207733 -0.8747851253 0.0000000000
-3.9668610096 16.8598461151 -0.9077148438 0.0000000000
-6.4524555206 18.9214820862 -0.8144712448 0.0000000000
-3.3128280640 18.0147609711 -0.6396379471 0.0000000000
-5.8413167000 20.3442878723 -0.4925272167 0.0000000000
-1.1101007462 4.7553324699 -2.2770671844 0.0000000000
-7.2712550163 21.4327144623 -0.3950526714 0.0000000000
-4.5485682487 19.5000495911 -0.5827415586 0.0000000000
-2.2264795303 7.8006129265 -2.2709028721 0.0000000000
-2.2507612705 9.6567993164 -1.9831380844 0.0000000000
-6.6686577797 23.3795280457 0.0000000000 0.0000000000
-3.7517552376 20.6241130829 -0.2440436631 0.0000000000
-3.1919155121 11.1978883743 -1.8115242720 0.0000000000
-2.8854749203 12.3897943497 -1.6192636490 0.0000000000
-8.3901357651 24.7733497620 0.1520164162 0.0000000000
-5.1675624847 22.2062778473 -0.1325116307 0.0000000000
-3.8427872658 13.4902095795 -1.5109251738 0.0000000000
-2.5362446308 13.9699115753 -1.3253824711 0.0000000000
-7.9071445465 27.7766456604 0.6720256209 0.0000000000
-4.3077025414 23.7508811951 0.2810157537 0.0000000000
-4.6500945091 16.3459377289 -1.1883713007 0.0000000000
-3.4475886822 14.8503484726 -1.2445509434 0.0000000000
-10.3302831650 30.5722084045 0.9391587973 0.0000000000
-5.9366617203 25.5719299316 0.4582303762 0.0000000000
-5.8461470604 17.3015232086 -1.1704230309 0.0000000000
-2.8948121071 15.9925794601 -0.9465032816 0.0000000000
-5.1105394363 18.0002918243 -0.8716210127 0.0000000000
-3.8881566525 16.7879772186 -0.9031092525 0.0000000000
-6.3723235130 18.9022312164 -0.8126801252 0.0000000000
-3.2378666401 17.9593353271 -0.6372647882 0.0000000000
-5.7492799759 20.3039970398 -0.4910383523 0.0000000000
-1.0991998911 4.7801856995 -2.2872099876 0.0000000000
-7.1823287010 21.4036273956 -0.3940753341 0.0000000000
-4.4794020653 19.4955425262 -0.5821597576 0.0000000000
-2.1974647045 7.7968311310 -2.2676680088 0.0000000000
-2.2160928249 9.6527414322 -1.9807846546 0.0000000000
-6.5704879761 23.3283596039 0.0000000000 0.0000000000
-3.6763145924 20.5970668793 -0.2435780317 0.0000000000
-3.1504809856 11.1931934357 -1.8090646267 0.0000000000
-2.8408243656 12.3838243484 -1.6172434092 0.0000000000
-8.2812576294 24.7213878632 0.1515282094 0.0000000000
-5.0804905891 22.1648082733 -0.1321629137 0.0000000000
-3.7829551697 13.4492807388 -1.5049277544 0.0000000000
-2.4850156307 13.9507980347 -1.3227800131 0.0000000000
-7.7727880478 27.6525745392 0.6683965325 0.0000000000
-4.2170057297 23.6980915070 0.2802241445 0.0000000000
-4.5775194168 16.2959613800 -1.1836278439 0.0000000000
-3.3912146091 14.8306074142 -1.2419472933 0.0000000000
-10.1933593750 30.5001163483 0.9359006882 0.0000000000
-5.8126034737 25.4199314117 0.4551587701 0.0000000000
-5.7545781136 17.2185916901 -1.1635155678 0.0000000000
-2.8473486900 16.0335445404 -0.9483637214 0.0000000000
-5.0540556908 18.0286808014 -0.8721793890 0.0000000000
-3.8582274914 16.9137172699 -0.9091802239 0.0000000000
-6.2982287407 18.8891353607 -0.8112146854 0.0000000000
-3.1880409718 18.0250835419 -0.6392191648 0.0000000000
-5.6682262421 20.2603435516 -0.4895495176 0.0000000000
-1.0889078379 4.8122801781 -2.3007338047 0.0000000000
-7.0395812988 21.2235832214 -0.3903056085 0.0000000000
-4.4139676094 19.5227603912 -0.5825088620 0.0000000000
-2.1671395302 7.7933206558 -2.2644331455 0.0000000000
-2.1806564331 9.6527671814 -1.9792157412 0.0000000000
-6.4740233421 23.2971973419 0.0000000000 0.0000000000
-3.5997154713 20.5618667603 -0.2430192530 0.0000000000
-3.1080546379 11.1845388412 -1.8059900999 0.0000000000
-2.7914633751 12.3665714264 -1.6137079000 0.0000000000
-8.1659955978 24.6628074646 0.1509935111 0.0000000000
-4.9890089035 22.1199779510 -0.1317909509 0.0000000000
-3.7157793045 13.3895921707 -1.4967883825 0.0000000000
-2.4315099716 13.9319238663 -1.3201775551 0.0000000000
-7.6377429962 27.5408115387 0.6650466323 0.0000000000
-4.1212058067 23.6378021240 0.2793394327 0.0000000000
-4.4971632957 16.2272434235 -1.1774892807 0.0000000000
-3.3490517139 14.8851394653 -1.2455273867 0.0000000000
-10.0567331314 30.4443950653 0.9331079721 0.0000000000
-5.7291030884 25.4634761810 0.4555776119 0.0000000000
-5.6956906319 17.2423648834 -1.1637713909 0.0000000000
-2.7947862148 16.0630569458 -0.9495264888 0.0000000000
-4.9676609039 17.9614906311 -0.8680846691 0.0000000000
-3.7930405140 16.8997993469 -0.9077148438 0.0000000000
-6.2209963799 18.8768424988 -0.8097492456 0.0000000000
-3.1087224483 17.9415702820 -0.6358688474 0.0000000000
-5.5864872932 20.2539978027 -0.4888981581 0.0000000000
-1.0571362972 4.7488179207 -2.2686147690 0.0000000000
-6.9903712273 21.3240337372 -0.3917018175 0.0000000000
-4.3371124268 19.4990196228 -0.5813452601 0.0000000000
-2.1378843784 7.7934088707 -2.2622764111 0.0000000000
-2.1418430805 9.6373462677 -1.9745088816 0.0000000000
-6.3715109825 23.2425003052 0.0000000000 0.0000000000
-3.5164275169 20.5072898865 -0.2422276586 0.0000000000
-3.0637695789 11.1762599945 -1.8029155731 0.0000000000
-2.7413976192 12.3452510834 -1.6096673012 0.0000000000
-8.0549764633 24.6151313782 0.1505285650 0.0000000000
-4.8979029655 22.0747776031 -0.1314189881 0.0000000000
-3.6700685024 13.4063167572 -1.4972167015 0.0000000000
-2.3781664371 13.9128465652 -1.3175750971 0.0000000000
-7.5025186539 27.4245891571 0.6616036892 0.0000000000
-4.0285706520 23.5929031372 0.2786409557 0.0000000000
-4.4194469452 16.1658630371 -1.1719087362 0.0000000000
-3.2901802063 14.8655986786 -1.2429237366 0.0000000000
-9.9119348526 30.3614864349 0.9295007586 0.0000000000
-5.6073422432 25.3349342346 0.4529248476 0.0000000000
-5.6243195534 17.2279891968 -1.1614688635 0.0000000000
-2.7306494713 16.0254764557 -0.9467357993 0.0000000000
-4.9070363045 17.9864311218 -0.8684569001 0.0000000000
-3.7503883839 16.9870471954 -0.9116923809 0.0000000000
-6.1303119659 18.8224391937 -0.8064926267 0.0000000000
-3.0400571823 17.9168395996 -0.6346124411 0.0000000000
-5.4937076569 20.1923427582 -0.4869440496 0.0000000000
-1.0335749388 4.7206072807 -2.2534005642 0.0000000000
-6.8998703957 21.2988433838 -0.3907942772 0.0000000000
-4.2382602692 19.3734264374 -0.5771561861 0.0000000000
-2.1096613407 7.7971057892 -2.2611980438 0.0000000000
-2.1065142155 9.6371002197 -1.9729399681 0.0000000000
-6.2736363411 23.2028179169 0.0000000000 0.0000000000
-3.4375379086 20.4760494232 -0.2417154461 0.0000000000
-3.0206120014 11.1716251373 -1.8004559278 0.0000000000
-2.6923613548 12.3276081085 -1.6061317921 0.0000000000
-7.9394669533 24.5517578125 0.1499706209 0.0000000000
-4.8080258369 22.0331211090 -0.1310702711 0.0000000000
-3.6045887470 13.3499355316 -1.4895057678 0.0000000000
-2.3236711025 13.8857107162 -1.3142291307 0.0000000000
-7.3890337944 27.3849773407 0.6600218415 0.0000000000
-3.9369592667 23.5515918732 0.2779890597 0.0000000000
-4.3401370049 16.0964317322 -1.1657701731 0.0000000000
-3.2306382656 14.8419332504 -1.2399945259 0.0000000000
-9.7297830582 30.1599788666 0.9222862720 0.0000000000
-5.5146193504 25.3348140717 0.4525758028 0.0000000000
-5.5359597206 17.1601390839 -1.1555848122 0.0000000000
-2.6661524773 15.9837064743 -0.9437125921 0.0000000000
-4.8421459198 17.9957332611 -0.8680846691 0.0000000000
-3.6783564091 16.9414825439 -0.9085522294 0.0000000000
-6.0596742630 18.8285045624 -0.8058413267 0.0000000000
-2.9585030079 17.8129806519 -0.6305640936 0.0000000000
-5.4159350395 20.1843605042 -0.4862926900 0.0000000000
-1.0224317312 4.7489943504 -2.2652339935 0.0000000000
-6.7950000763 21.2275733948 -0.3890490532 0.0000000000
-4.1621999741 19.3490142822 -0.5759925842 0.0000000000
-2.0804455280 7.7969789505 -2.2590415478 0.0000000000
-2.0703890324 9.6328907013 -1.9705865383 0.0000000000
-6.1761159897 23.1627368927 0.0000000000 0.0000000000
-3.3576126099 20.4366149902 -0.2411101162 0.0000000000
-2.9795606136 11.1744632721 -1.7992260456 0.0000000000
-2.6426486969 12.3058948517 -1.6020911932 0.0000000000
-7.8257155418 24.4916877747 0.1494359225 0.0000000000
-4.7201776505 21.9989280701 -0.1307680607 0.0000000000
-3.5651297569 13.3893384933 -1.4925044775 0.0000000000
-2.2706813812 13.8662242889 -1.3116266727 0.0000000000
-7.2646059990 27.3023967743 0.6574163437 0.0000000000
-3.8431026936 23.4941406250 0.2771508992 0.0000000000
-4.2849488258 16.1153411865 -1.1660492420 0.0000000000
-3.1671297550 14.7985420227 -1.2354381084 0.0000000000
-9.6098747253 30.1480445862 0.9208899736 0.0000000000
-5.4094109535 25.2756919861 0.4511796236 0.0000000000
-5.4590535164 17.1261138916 -1.1520031691 0.0000000000
-2.5936179161 15.8904476166 -0.9376661181 0.0000000000
-4.7618789673 17.9468708038 -0.8649204969 0.0000000000
-3.6250345707 16.9815654755 -0.9100176096 0.0000000000
-5.9757466316 18.7924098969 -0.8033989072 0.0000000000
-2.8841233253 17.7482280731 -0.6279117465 0.0000000000
-5.3301029205 20.1451530457 -0.4848968983 0.0000000000
-0.9968408346 4.7099742889 -2.2449481487 0.0000000000
-6.6786513329 21.1177005768 -0.3866057098 0.0000000000
-4.0698180199 19.2460708618 -0.5725017190 0.0000000000
-2.0492959023 7.7892928123 -2.2547283173 0.0000000000
-2.0351297855 9.6323833466 -1.9690176249 0.0000000000
-6.0779356956 23.1183891296 0.0000000000 0.0000000000
-3.2780044079 20.3968734741 -0.2405047715 0.0000000000
-2.9335017204 11.1580371857 -1.7949217558 0.0000000000
-2.5955791473 12.2956323624 -1.5995658636 0.0000000000
-7.7185015678 24.4501972198 0.1490174681 0.0000000000
-4.6293249130 21.9487342834 -0.1303728521 0.0000000000
-3.5012028217 13.3363084793 -1.4852218628 0.0000000000
-2.2172262669 13.8426055908 -1.3086525202 0.0000000000
-7.1357717514 27.1999435425 0.6543456316 0.0000000000
-3.7515909672 23.4481697083 0.2764524519 0.0000000000
-4.2084321976 16.0530033112 -1.1604686975 0.0000000000
-3.1113502979 14.7899999619 -1.2338109016 0.0000000000
-9.4481334686 30.0021629333 0.9154209495 0.0000000000
-5.3030362129 25.2083187103 0.4496437907 0.0000000000
-5.3848509789 17.0993747711 -1.1489332914 0.0000000000
-2.5437996387 15.9348936081 -0.9397591352 0.0000000000
-4.6739230156 17.8667430878 -0.8602674007 0.0000000000
-3.5271828175 16.8103733063 -0.9001784325 0.0000000000
-5.8957386017 18.7674007416 -0.8014449477 0.0000000000
-2.8045849800 17.6476440430 -0.6240029931 0.0000000000
-5.2531695366 20.1240253448 -0.4839663804 0.0000000000
-0.9922058582 4.7702136040 -2.2719957829 0.0000000000
-6.6156301498 21.1752414703 -0.3872340024 0.0000000000
-4.0066795349 19.2797317505 -0.5730835199 0.0000000000
-2.0201597214 7.7889413834 -2.2525718212 0.0000000000
-1.9991017580 9.6279077530 -1.9666641951 0.0000000000
-5.9811434746 23.0775108337 0.0000000000 0.0000000000
-3.1951618195 20.3573837280 -0.2398994416 0.0000000000
-2.8915946484 11.1648883820 -1.7943067551 0.0000000000
-2.5494194031 12.2890768051 -1.5975456238 0.0000000000
-7.6081004143 24.3968009949 0.1485292614 0.0000000000
-4.5413160324 21.9099273682 -0.1300473809 0.0000000000
-3.4396827221 13.2906961441 -1.4787960052 0.0000000000
-2.1645798683 13.8227176666 -1.3060500622 0.0000000000
-7.0287680626 27.1782283783 0.6532289982 0.0000000000
-4.1373949051 16.0096454620 -1.1562832594 0.0000000000
-3.0540549755 14.7734413147 -1.2315326929 0.0000000000
-9.2958421707 29.8822479248 0.9107664227 0.0000000000
-5.2009000778 25.1805858612 0.4488060772 0.0000000000
-5.3091063499 17.0770664215 -1.1461191177 0.0000000000
-2.4826192856 15.9081668854 -0.9376661181 0.0000000000
-4.6235008240 17.9293785095 -0.8625009060 0.0000000000
-3.4934875965 16.9438629150 -0.9066681266 0.0000000000
-5.8112401962 18.7267913818 -0.7988396883 0.0000000000
-2.7711935043 17.8390350342 -0.6304244995 0.0000000000
-5.1639575958 20.0686569214 -0.4821983576 0.0000000000
-0.9595798850 4.6955080032 -2.2348053455 0.0000000000
-6.5157294273 21.1141300201 -0.3856981695 0.0000000000
-3.9337575436 19.2661781311 -0.5722689629 0.0000000000
-1.9939129353 7.7996778488 -2.2536499500 0.0000000000
-1.9623459578 9.6194543839 -1.9635263681 0.0000000000
-5.8827309608 23.0284881592 0.0000000000 0.0000000000
-3.1155924797 20.3130626678 -0.2392475456 0.0000000000
-2.8457612991 11.1481065750 -1.7900024652 0.0000000000
-2.5025448799 12.2784605026 -1.5950201750 0.0000000000
-7.4993438721 24.3467559814 0.1480643153 0.0000000000
-3.3844215870 13.2679395676 -1.4749405384 0.0000000000
-2.1127018929 13.8065681458 -1.3038194180 0.0000000000
-6.8824934959 27.0010967255 0.6483902335 0.0000000000
-3.5593988895 23.2879600525 0.2742639184 0.0000000000
-4.0578474998 15.9311866760 -1.1495866776 0.0000000000
-2.9937393665 14.7410354614 -1.2279525995 0.0000000000
-9.1597700119 29.8113212585 0.9076246619 0.0000000000
-5.1022458076 25.1232261658 0.4474796951 0.0000000000
-5.2336888313 17.0335254669 -1.1420258284 0.0000000000
-2.4409193993 16.0075302124 -0.9430149198 0.0000000000
-4.5352978706 17.8447227478 -0.8576616645 0.0000000000
-3.4263916016 16.9168033600 -0.9045746922 0.0000000000
-5.7294392586 18.6934642792 -0.7965600491 0.0000000000
-2.7173047066 17.9039306641 -0.6323788762 0.0000000000
-5.0761795044 20.0167884827 -0.4805234373 0.0000000000
-0.9310549498 4.6384053230 -2.2060673237 0.0000000000
-6.4244980812 21.0793609619 -0.3846510351 0.0000000000
-3.8444685936 19.1700248718 -0.5690108538 0.0000000000
-1.9638518095 7.7953844070 -2.2504150867 0.0000000000
-1.9279851913 9.6224002838 -1.9627418518 0.0000000000
-5.7876634598 22.9906978607 0.0000000000 0.0000000000
-3.0405023098 20.2718620300 -0.2386422008 0.0000000000
-2.8039526939 11.1383171082 -1.7869279385 0.0000000000
-2.4549965858 12.2637767792 -1.5919897556 0.0000000000
-7.3921937943 24.3000755310 0.1476226151 0.0000000000
-4.3654971123 21.8273525238 -0.1293731928 0.0000000000
-3.3322701454 13.2565307617 -1.4723702669 0.0000000000
-2.0609629154 13.7902250290 -1.3015887737 0.0000000000
-6.7657933235 26.9357528687 0.6462500095 0.0000000000
-3.4698200226 23.2448596954 0.2736120224 0.0000000000
-3.9808416367 15.8601102829 -1.1434481144 0.0000000000
-2.9453845024 14.7670345306 -1.2292544842 0.0000000000
-8.9801893234 29.5944194794 0.9000611305 0.0000000000
-4.9949612617 25.0428295135 0.4457344711 0.0000000000
-5.1452217102 16.9561958313 -1.1356300116 0.0000000000
-2.3909094334 16.0554504395 -0.9453404546 0.0000000000
-4.4555077553 17.7906780243 -0.8543114066 0.0000000000
-3.3571891785 16.8777294159 -0.9018532038 0.0000000000
-5.6433110237 18.6444950104 -0.7936291695 0.0000000000
-2.6577219963 17.9330787659 -0.6330768466 0.0000000000
-4.9820404053 19.9373950958 -0.4781970978 0.0000000000
-0.9253738523 4.6949791908 -2.2314243317 0.0000000000
-6.2655854225 20.8182601929 -0.3794851303 0.0000000000
-3.7643969059 19.1166381836 -0.5670326948 0.0000000000
-1.9357010126 7.7984538078 -2.2493367195 0.0000000000
-1.8905992508 9.6098289490 -1.9588195086 0.0000000000
-5.6900424957 22.9408779144 0.0000000000 0.0000000000
-2.9621889591 20.2309036255 -0.2380368710 0.0000000000
-2.7612497807 11.1326923370 -1.7844682932 0.0000000000
-2.4083466530 12.2528047562 -1.5894644260 0.0000000000
-7.2831597328 24.2452831268 0.1471344084 0.0000000000
-4.2754054070 21.7718086243 -0.1289547384 0.0000000000
-3.2821516991 13.2526397705 -1.4706566334 0.0000000000
-2.0093638897 13.7736892700 -1.2993581295 0.0000000000
-6.6333026886 26.8039340973 0.6425279379 0.0000000000
-3.3863525391 23.2409973145 0.2734257579 0.0000000000
-3.9264132977 15.8777828217 -1.1437271833 0.0000000000
-2.8693027496 14.6520280838 -1.2188397646 0.0000000000
-8.8412551880 29.5068550110 0.8964539170 0.0000000000
-4.9052090645 25.0483379364 0.4455250204 0.0000000000
-5.0562124252 16.8746318817 -1.1289784908 0.0000000000
-2.3331277370 16.0518436432 -0.9446428418 0.0000000000
-4.3742361069 17.7285346985 -0.8505889177 0.0000000000
-3.2921295166 16.8579826355 -0.9001784325 0.0000000000
-5.5701837540 18.6372756958 -0.7924893498 0.0000000000
-2.5899574757 17.9066390991 -0.6318204999 0.0000000000
-4.9057245255 19.9274845123 -0.4775457382 0.0000000000
-0.8975121975 4.6302423477 -2.1993055344 0.0000000000
-3.6951994896 19.0812664032 -0.5656363368 0.0000000000
-1.9084433317 7.7932724953 -2.2461018562 0.0000000000
-1.8589097261 9.6080188751 -1.9572505951 0.0000000000
-5.6046333313 22.9042453766 0.0000000000 0.0000000000
-2.8901116848 20.1807193756 -0.2373384088 0.0000000000
-2.7206251621 11.1182765961 -1.7807787657 0.0000000000
-2.3638169765 12.2291431427 -1.5854238272 0.0000000000
-7.1910128593 24.2143630981 0.1468089372 0.0000000000
-4.1956095695 21.7262210846 -0.1286060214 0.0000000000
-3.2405011654 13.2628860474 -1.4706566334 0.0000000000
-1.9610199928 13.7444496155 -1.2960120440 0.0000000000
-6.5386304855 26.7819080353 0.6415043473 0.0000000000
-3.3059866428 23.2000465393 0.2728204131 0.0000000000
-3.8509778976 15.7853727341 -1.1361933947 0.0000000000
-2.8262734413 14.6766290665 -1.2201416492 0.0000000000
-8.7223939896 29.4463100433 0.8937775493 0.0000000000
-4.8100295067 25.0016288757 0.4444080889 0.0000000000
-4.9888958931 16.8530311584 -1.1264201403 0.0000000000
-2.2759444714 16.0116519928 -0.9418521523 0.0000000000
-4.2939496040 17.6412487030 -0.8457496762 0.0000000000
-3.2346327305 16.8447036743 -0.8989223838 0.0000000000
-5.4923539162 18.5895233154 -0.7897212505 0.0000000000
-2.5275316238 17.8711471558 -0.6302849054 0.0000000000
-4.8355464935 19.9117088318 -0.4768013358 0.0000000000
-0.8766021132 4.6084175110 -2.1874721050 0.0000000000
-6.1521744728 20.9437770844 -0.3810209334 0.0000000000
-3.6166276932 19.0312004089 -0.5637745261 0.0000000000
-1.8803249598 7.7961421013 -2.2450237274 0.0000000000
-1.8217021227 9.5951814651 -1.9533282518 0.0000000000
-5.5087165833 22.8575630188 0.0000000000 0.0000000000
-2.8094961643 20.1436405182 -0.2367796302 0.0000000000
-2.6789309978 11.1243314743 -1.7801638842 0.0000000000
-2.3159389496 12.2100305557 -1.5818883181 0.0000000000
-7.0850639343 24.1663875580 0.1463672370 0.0000000000
-4.1093196869 21.6857147217 -0.1282805651 0.0000000000
-3.1941852570 13.2741165161 -1.4706566334 0.0000000000
-1.9058969021 13.6999301910 -1.2911789417 0.0000000000
-6.4264063835 26.7268066406 0.6396433115 0.0000000000
-3.2172772884 23.1559810638 0.2721685171 0.0000000000
-3.7846670151 15.7521600723 -1.1328451633 0.0000000000
-2.7609612942 14.6119747162 -1.2139579058 0.0000000000
-8.5634450912 29.2846984863 0.8879594803 0.0000000000
-4.7204117775 24.9820728302 0.4437797964 0.0000000000
-4.9318614006 16.8656501770 -1.1261643171 0.0000000000
-2.2156541348 15.9878549576 -0.9399917126 0.0000000000
-4.2248926163 17.6250457764 -0.8442606926 0.0000000000
-3.1321780682 16.6242904663 -0.8865711093 0.0000000000
-5.4162402153 18.5702133179 -0.7880929708 0.0000000000
-2.4514844418 17.7808589935 -0.6267949343 0.0000000000
-4.7346501350 19.8126163483 -0.4740097523 0.0000000000
-0.8638353944 4.6292676926 -2.1959245205 0.0000000000
-6.0133166313 20.7384948730 -0.3769021630 0.0000000000
-3.5406484604 18.9926109314 -0.5622618198 0.0000000000
-1.8522098064 7.7989106178 -2.2439453602 0.0000000000
-1.7860431671 9.5899143219 -1.9509748220 0.0000000000
-5.4150409698 22.8182735443 0.0000000000 0.0000000000
-2.7321619987 20.1018028259 -0.2361743003 0.0000000000
-2.6336998940 11.1066942215 -1.7758594751 0.0000000000
-2.2696747780 12.1985349655 -1.5793629885 0.0000000000
-6.9817619324 24.1256542206 0.1459720284 0.0000000000
-4.0204396248 21.6291408539 -0.1278620958 0.0000000000
-3.1459965706 13.2774457932 -1.4697998762 0.0000000000
-1.8569935560 13.6986064911 -1.2904354334 0.0000000000
-6.3118834496 26.6595745087 0.6375030875 0.0000000000
-3.1240863800 23.0759086609 0.2710975409 0.0000000000
-3.7167978287 15.7109127045 -1.1289387941 0.0000000000
-2.6954085827 14.5431232452 -1.2074488401 0.0000000000
-8.4146013260 29.1530685425 0.8830722570 0.0000000000
-4.6207890511 24.9315471649 0.4425930381 0.0000000000
-4.8618893623 16.8444099426 -1.1236060858 0.0000000000
-2.1539547443 15.9519615173 -0.9374336004 0.0000000000
-4.0963416100 17.3558025360 -0.8306736350 0.0000000000
-3.0385608673 16.4426498413 -0.8763132691 0.0000000000
-5.3392229080 18.5467586517 -0.7863018513 0.0000000000
-4.6725893021 19.8437786102 -0.4743819535 0.0000000000
-0.8541965485 4.6679148674 -2.2128291130 0.0000000000
-5.9606957436 20.8285694122 -0.3781587481 0.0000000000
-3.4556357861 18.9025936127 -0.5592364073 0.0000000000
-1.8214673996 7.7903251648 -2.2396321297 0.0000000000
-1.7497384548 9.5806560516 -1.9478368759 0.0000000000
-5.3180675507 22.7630290985 0.0000000000 0.0000000000
-2.6586549282 20.0592060089 -0.2355689555 0.0000000000
-2.5941567421 11.1038198471 -1.7740148306 0.0000000000
-2.2206702232 12.1712512970 -1.5748172998 0.0000000000
-6.8766336441 24.0768013000 0.1455303133 0.0000000000
-3.9355907440 21.5918865204 -0.1275598854 0.0000000000
-3.0987272263 13.2844734192 -1.4693715572 0.0000000000
-1.8055166006 13.6773653030 -1.2878329754 0.0000000000
-6.2024464607 26.6113433838 0.6358281374 0.0000000000
-3.0382897854 23.0470180511 0.2706319094 0.0000000000
-3.6963267326 15.8714685440 -1.1395417452 0.0000000000
-2.6424887180 14.5406761169 -1.2064723969 0.0000000000
-8.2558269501 28.9823055267 0.8770214319 0.0000000000
-4.5251522064 24.9003047943 0.4417553246 0.0000000000
-4.7943129539 16.8305664062 -1.1215593815 0.0000000000
-2.0940947533 15.9277095795 -0.9355731010 0.0000000000
-4.0303077698 17.3466434479 -0.8295568824 0.0000000000
-2.9669034481 16.3745460510 -0.8721264005 0.0000000000
-5.2569742203 18.5037708282 -0.7836965919 0.0000000000
-2.3241820335 17.7737579346 -0.6259573698 0.0000000000
-4.5862927437 19.8023338318 -0.4729861617 0.0000000000
-0.8410977721 4.6887097359 -2.2212815285 0.0000000000
-5.8596935272 20.7491798401 -0.3763436973 0.0000000000
-3.3755264282 18.8358268738 -0.5569092035 0.0000000000
-1.7933990955 7.7928819656 -2.2385537624 0.0000000000
-1.7149026394 9.5789833069 -1.9462679625 0.0000000000
-5.2233386040 22.7151851654 0.0000000000 0.0000000000
-2.5824790001 20.0207614899 -0.2350101918 0.0000000000
-2.5509524345 11.0935478210 -1.7709401846 0.0000000000
-2.1739795208 12.1554927826 -1.5717868805 0.0000000000
-6.7643361092 24.0005588531 0.1449258775 0.0000000000
-3.8496441841 21.5464286804 -0.1272111684 0.0000000000
-3.0443277359 13.2603235245 -1.4655159712 0.0000000000
-1.7547180653 13.6598834991 -1.2856023312 0.0000000000
-6.0844826698 26.5236968994 0.6332226992 0.0000000000
-2.9501883984 22.9979743958 0.2699334323 0.0000000000
-3.6328787804 15.8492698669 -1.1370304823 0.0000000000
-2.5959110260 14.5733613968 -1.2084251642 0.0000000000
-8.1189050674 28.8839263916 0.8731814623 0.0000000000
-4.4332971573 24.8883876801 0.4412666559 0.0000000000
-4.7204113007 16.7933979034 -1.1179777384 0.0000000000
-2.0349369049 15.9071960449 -0.9339452386 0.0000000000
-3.9670603275 17.3489208221 -0.8289985061 0.0000000000
-2.8971555233 16.3140087128 -0.8683581948 0.0000000000
-5.1664605141 18.4296493530 -0.7797886729 0.0000000000
-2.2606124878 17.7698650360 -0.6255385876 0.0000000000
-4.4975910187 19.7324466705 -0.4709390104 0.0000000000
-0.8266089559 4.7023286819 -2.2263529301 0.0000000000
-5.7818622589 20.7502441406 -0.3759946525 0.0000000000
-3.3028411865 18.8081150055 -0.5557455420 0.0000000000
-1.7644844055 7.7915811539 -2.2363972664 0.0000000000
-1.6794221401 9.5733213425 -1.9439145327 0.0000000000
-5.1307740211 22.6747589111 0.0000000000 0.0000000000
-2.5071015358 19.9860000610 -0.2344979793 0.0000000000
-2.5113408566 11.0985298157 -1.7703253031 0.0000000000
-2.1281108856 12.1434650421 -1.5692614317 0.0000000000
-6.6644425392 23.9662189484 0.1445771605 0.0000000000
-3.7626836300 21.4927558899 -0.1268159598 0.0000000000
-2.9936401844 13.2514734268 -1.4633740187 0.0000000000
-1.7040636539 13.6422138214 -1.2833716869 0.0000000000
-5.9733695984 26.4628582001 0.6312685609 0.0000000000
-2.8624665737 22.9485988617 0.2692349851 0.0000000000
-3.5810441971 15.8774242401 -1.1381466389 0.0000000000
-2.5415976048 14.5626974106 -1.2067978382 0.0000000000
-7.9795660973 28.7733860016 0.8689924479 0.0000000000
-4.3402047157 24.8682518005 0.4406383634 0.0000000000
-4.6425609589 16.7405338287 -1.1133728027 0.0000000000
-1.9759478569 15.8864631653 -0.9323173165 0.0000000000
-3.8950750828 17.3119850159 -0.8265788555 0.0000000000
-2.8641562462 16.4617614746 -0.8756852150 0.0000000000
-5.0882477760 18.3974933624 -0.7776718736 0.0000000000
-2.1936638355 17.7379741669 -0.6241425872 0.0000000000
-4.4015574455 19.6270637512 -0.4680543840 0.0000000000
-0.8120352626 4.7159032822 -2.2314243317 0.0000000000
-5.6754736900 20.6468963623 -0.3737607300 0.0000000000
-3.2059895992 18.6382694244 -0.5503929257 0.0000000000
-1.7347630262 7.7864136696 -2.2331624031 0.0000000000
-1.6433378458 9.5636625290 -1.9407767057 0.0000000000
-5.0376863480 22.6300582886 0.0000000000 0.0000000000
-2.4324822426 19.9549255371 -0.2340323329 0.0000000000
-2.4665727615 11.0802221298 -1.7660208941 0.0000000000
-2.0830242634 12.1351766586 -1.5672411919 0.0000000000
-6.5616974831 23.9199028015 0.1441587061 0.0000000000
-3.6774969101 21.4466228485 -0.1264672428 0.0000000000
-2.9387376308 13.2230195999 -1.4590902328 0.0000000000
-1.6530741453 13.6204032898 -1.2807692289 0.0000000000
-5.8558211327 26.3703365326 0.6285700202 0.0000000000
-2.7741630077 22.8909492493 0.2684433758 0.0000000000
-3.4962124825 15.7573804855 -1.1286597252 0.0000000000
-2.4961225986 14.6029176712 -1.2094014883 0.0000000000
-7.8611440659 28.7355022430 0.8670142889 0.0000000000
-4.2466335297 24.8438282013 0.4399402738 0.0000000000
-4.5735640526 16.7181339264 -1.1108145714 0.0000000000
-1.9166494608 15.8615484238 -0.9304568768 0.0000000000
-3.8406653404 17.3527851105 -0.8278817534 0.0000000000
-2.8482768536 16.7158012390 -0.8886645436 0.0000000000
-5.0019068718 18.3341712952 -0.7742524743 0.0000000000
-2.1264886856 17.7018642426 -0.6226069927 0.0000000000
-4.3347425461 19.6501178741 -0.4682404995 0.0000000000
-0.7937605977 4.7079849243 -2.2263529301 0.0000000000
-5.6274394989 20.7553634644 -0.3753663599 0.0000000000
-3.1654798985 18.7952308655 -0.5546982884 0.0000000000
-1.7067482471 7.7886590958 -2.2320840359 0.0000000000
-1.6092935801 9.5654726028 -1.9399921894 0.0000000000
-4.9432625771 22.5771713257 0.0000000000 0.0000000000
-2.3562300205 19.9076881409 -0.2333804369 0.0000000000
-2.4236536026 11.0694599152 -1.7629463673 0.0000000000
-2.0380213261 12.1267213821 -1.5652209520 0.0000000000
-6.4593567848 23.8731613159 0.1437402517 0.0000000000
-3.5933403969 21.4041023254 -0.1261417717 0.0000000000
-2.8866178989 13.2060003281 -1.4560915232 0.0000000000
-1.6017916203 13.5944480896 -1.2777950764 0.0000000000
-5.7552032471 26.3515491486 0.6276395321 0.0000000000
-2.6872315407 22.8409080505 0.2677448988 0.0000000000
-3.3969500065 15.5667657852 -1.1141504049 0.0000000000
-2.4372375011 14.5643577576 -1.2054960728 0.0000000000
-7.7128777504 28.5851955414 0.8616616130 0.0000000000
-4.1374435425 24.7243862152 0.4375667274 0.0000000000
-4.4902219772 16.6415023804 -1.1046745777 0.0000000000
-1.8580142260 15.8403797150 -0.9288290143 0.0000000000
-3.7809193134 17.3699913025 -0.8280678988 0.0000000000
-2.7800521851 16.6665401459 -0.8855243921 0.0000000000
-4.9181475639 18.2781906128 -0.7711586952 0.0000000000
-2.0619070530 17.6853561401 -0.6217694283 0.0000000000
-4.2517385483 19.5823192596 -0.4662863910 0.0000000000
-0.7779120803 4.7143034935 -2.2280435562 0.0000000000
-5.4898700714 20.5314693451 -0.3709683418 0.0000000000
-3.1180605888 18.9166278839 -0.5579564571 0.0000000000
-1.6771162748 7.7832727432 -2.2288491726 0.0000000000
-1.5733451843 9.5555515289 -1.9368543625 0.0000000000
-4.8526368141 22.5395450592 0.0000000000 0.0000000000
-2.2755043507 19.8486366272 -0.2325888425 0.0000000000
-2.3772473335 11.0512208939 -1.7586420774 0.0000000000
-1.9911708832 12.1063537598 -1.5616854429 0.0000000000
-6.3615474701 23.8414573669 0.1434147805 0.0000000000
-3.5075802803 21.3494167328 -0.1257465631 0.0000000000
-2.8371601105 13.2004432678 -1.4543778896 0.0000000000
-1.5511627197 13.5722579956 -1.2751926184 0.0000000000
-5.6505899429 26.3128299713 0.6262437105 0.0000000000
-2.6015903950 22.7984886169 0.2671395838 0.0000000000
-3.3308715820 15.5239076614 -1.1102440357 0.0000000000
-2.3844509125 14.5609731674 -1.2045196295 0.0000000000
-7.5719261169 28.4573898315 0.8570071459 0.0000000000
-4.0287184715 24.6288700104 0.4356120527 0.0000000000
-4.4015021324 16.5536880493 -1.0977672338 0.0000000000
-1.7977447510 15.8031253815 -0.9262709022 0.0000000000
-3.7261171341 17.4104328156 -0.8293707371 0.0000000000
-2.7064149380 16.5815258026 -0.8805001378 0.0000000000
-4.8563647270 18.3029727936 -0.7714843750 0.0000000000
-1.9961193800 17.6566944122 -0.6205130219 0.0000000000
-4.1716694832 19.5422897339 -0.4649836421 0.0000000000
-0.7591404319 4.7026748657 -2.2212815285 0.0000000000
-5.4181685448 20.5505084991 -0.3709683418 0.0000000000
-3.0462818146 18.8918704987 -0.5569092035 0.0000000000
-1.6467444897 7.7740063667 -2.2245359421 0.0000000000
-1.5387330055 9.5532398224 -1.9352854490 0.0000000000
-4.7623343468 22.5015602112 0.0000000000 0.0000000000
-2.2013473511 19.8127307892 -0.2320766300 0.0000000000
-2.3353860378 11.0439834595 -1.7561824322 0.0000000000
-1.9451179504 12.0897245407 -1.5586549044 0.0000000000
-6.2599678040 23.7938899994 0.1429963261 0.0000000000
-3.4235150814 21.3022899628 -0.1253978461 0.0000000000
-2.7836656570 13.1752471924 -1.4505224228 0.0000000000
-1.4998314381 13.5419635773 -1.2718466520 0.0000000000
-5.5190606117 26.1445846558 0.6217772365 0.0000000000
-2.5140802860 22.7358722687 0.2663014233 0.0000000000
-3.2708983421 15.5081090927 -1.1082909107 0.0000000000
-2.3285646439 14.5377149582 -1.2019159794 0.0000000000
-7.4502239227 28.3985652924 0.8544471860 0.0000000000
-3.9248852730 24.5038776398 0.4331687391 0.0000000000
-4.3212599754 16.4716644287 -1.0913714170 0.0000000000
-1.7381955385 15.7696123123 -0.9239453077 0.0000000000
-3.6538047791 17.3685913086 -0.8267650008 0.0000000000
-2.6384429932 16.5277595520 -0.8771506548 0.0000000000
-4.7722158432 18.2424831390 -0.7682278156 0.0000000000
-1.9288161993 17.6118946075 -0.6186982989 0.0000000000
-4.0943961143 19.5136814117 -0.4639600813 0.0000000000
-0.7410246730 4.6945533752 -2.2162101269 0.0000000000
-5.3272852898 20.4957504272 -0.3696419597 0.0000000000
-2.9716002941 18.8470954895 -0.5552800894 0.0000000000
-1.6180279255 7.7721652985 -2.2223792076 0.0000000000
-1.5035459995 9.5469293594 -1.9329320192 0.0000000000
-4.6739854813 22.4710521698 0.0000000000 0.0000000000
-2.1304919720 19.7722015381 -0.2315178663 0.0000000000
-2.2923109531 11.0207099915 -1.7512631416 0.0000000000
-1.8973554373 12.0611629486 -1.5541093349 0.0000000000
-6.1567893028 23.7381591797 0.1425313652 0.0000000000
-3.3416845798 21.2666931152 -0.1251188815 0.0000000000
-2.7328073978 13.1615200043 -1.4479521513 0.0000000000
-1.4491553307 13.5154361725 -1.2688723803 0.0000000000
-5.4123315811 26.0892963409 0.6200091839 0.0000000000
-2.4278903008 22.6808776855 0.2655563951 0.0000000000
-3.2110760212 15.4920825958 -1.1063376665 0.0000000000
-2.2728700638 14.5142450333 -1.1993123293 0.0000000000
-7.3170118332 28.2927856445 0.8504908681 0.0000000000
-3.8356144428 24.4937210083 0.4327498674 0.0000000000
-4.2397499084 16.3938961029 -1.0852315426 0.0000000000
-1.6797496080 15.7438182831 -0.9220848680 0.0000000000
-3.5850658417 17.3421115875 -0.8249037862 0.0000000000
-2.5918209553 16.6079101562 -0.8809188008 0.0000000000
-4.7055149078 18.2474193573 -0.7677392960 0.0000000000
-1.8635355234 17.5827426910 -0.6174418926 0.0000000000
-4.0101051331 19.4495239258 -0.4620990157 0.0000000000
-0.7135784626 4.6254544258 -2.1824007034 0.0000000000
-5.2527313232 20.5025997162 -0.3694325387 0.0000000000
-2.8990952969 18.8138847351 -0.5540001392 0.0000000000
-1.5885725021 7.7664446831 -2.2191443443 0.0000000000
-1.4684218168 9.5404891968 -1.9305785894 0.0000000000
-4.5795006752 22.4088497162 0.0000000000 0.0000000000
-2.0564856529 19.7317790985 -0.2309590876 0.0000000000
